# 3D point list with one line of data per point:
#   POINT3D_ID, X, Y, Z, R, G, B, ERROR, TRACK[] as (IMAGE_ID, POINT2D_IDX)
# Number of points: 351, mean track length: 6.3868479059515062
11061 1.0880432145920322 -0.49226352611472141 3.4879553714579097 255 255 255 0.79807104496593506 27 372 25 224
2524 0.50201624467079353 1.1640681676831315 3.7124121749508725 102 86 82 2.1844500470282271 60 335 50 1116 58 344
10287 -0.82472859636099072 -0.36711313117157279 5.098523626770457 255 255 255 0.29081787875717963 44 264 46 247
3216 -1.6553274050358464 -0.24170682218302392 3.7276037813728848 87 84 81 1.9948126242070459 7 280 11 290 6 212 5 301 52 70 16 723 69 827 13 665
11396 0.59706949327605985 -0.95489040685248494 3.6676305538095946 31 28 29 0.79633006701372167 25 828 22 527
4325 -1.4600294217484753 -1.2457804568035842 4.9986426997408913 255 255 255 1.0514162103477187 52 13 66 17 39 15 33 16 2 26
12194 0.98342318007364971 0.25198977347997581 3.6511239053322937 80 76 73 1.717462190412179 20 651 21 904 78 1045 75 635 18 858 13 835 12 808
3710 -2.6236128158964691 -0.22458806685344856 4.562075480927926 91 82 65 1.2016355399713461 5 185 6 190 3 127 39 13 52 347 4 246
13983 0.11380979930973112 -0.57916501360104045 3.9847660829050104 60 57 54 0.93742509861480006 65 874 68 928
13277 -0.24660599716408582 -0.84476088074844358 4.1217719081140727 88 84 81 1.4727523276459742 59 750 64 880 58 970
10920 0.7139833304955997 0.079752270018973989 3.9095760491265477 57 53 48 1.9905403811144564 26 771 25 493 24 740
15659 -1.9952362542453002 -0.09030036055397378 3.4504850745248135 154 154 154 0.68054475930153124 71 712 13 634 67 616
5485 1.0451339035547396 1.0614894578230949 3.7164408848855519 252 252 252 1.8229728314139535 80 438 83 1001 89 426 26 303 76 294
15758 -1.6113644002030905 -0.26052237522032468 3.6674692270498928 64 62 60 1.9174932324026346 11 276 73 440 13 696 3 485 90 297 10 646
10572 1.2219516622051483 -0.226198165648127 1.4511129441596144 129 129 129 1.5599726074760163 26 350 29 762
12251 1.7337664308573983 0.45378431308556194 3.5215310048487893 108 103 98 1.5037144522223738 19 22 65 194 67 130
12278 -0.53076046881708916 -0.036201021487966382 3.6325545290533943 55 52 49 1.2257696492177343 23 180 77 256 75 176
4461 -1.7617264550499698 -1.1420696451801082 5.0932644566660565 67 64 61 1.5218540240701335 52 280 66 291 33 289
14635 1.7768054523947949 0.39052110989521105 4.3579100172871872 0 0 0 0.32599067457173236 22 309 77 344
4362 -2.5577124366969315 0.081979728432359053 4.0290234721256661 92 88 85 0.96791248858701318 7 463 39 324 33 303
2913 -1.269458608135329 -0.72715943355077473 3.5418644836309663 74 69 64 1.1769943364344595 49 715 51 496 53 517 48 611
13186 0.43652703535966991 -0.74445103116502021 4.6737031863676055 0 0 0 2.7773381793185719 61 373 63 296
5589 1.7224893142760609 -0.17632831676948207 3.9904147087254089 126 123 122 1.5937226851348678 83 875 84 509 85 488 89 542 86 693 91 422
15862 1.5875834740406722 -0.55114672680462484 6.0753193763478617 61 57 54 1.582546890732178 15 588 12 730
10676 1.1621008907685468 1.0313887358057552 3.6817755336441391 182 182 182 2.0907665713389907 26 14 27 17 28 17 30 19 29 15 31 16 25 14 24 26 22 20 75 25 74 24 32 15 81 24 76 16 34 8
12063 0.25707751217220293 -0.18871217991520989 4.2670051330027645 47 45 43 0.75157632031382993 72 363 78 243 71 354 70 699
10330 1.0431348418969271 0.09443279050550421 3.0868872190168757 33 29 30 2.1666492926061629 44 85 43 100 46 59 44 575 45 1172
15417 -1.0932529546148788 0.38851888965674114 3.9982238156239704 112 83 77 1.8108858150012723 6 738 90 379 33 566 9 676 1 527 15 472 5 777 52 539 71 985 63 803 58 532 59 1392 61 1268 62 805 60 1194 7 709 11 717 6 749 19 526 64 1194 65 510 67 590 69 1155 18 560 16 877 73 594 33 561 9 673 78 871 19 851 14 464 13 940 12 556 10 572 8 822 8 832 4 743
5144 0.99773843351782676 -1.1275879217501612 4.2357473824738738 33 30 31 1.8778486900025109 80 340 82 361 83 384 83 593
1275 -1.3129260753481413 -1.0674638132293748 4.4093714507787691 127 127 127 1.4417410365312655 58 56 63 64 61 109 59 66 62 51 60 90 57 89 56 69 54 77 55 77 53 82 51 113 48 150 64 62 65 72
11548 1.3289961674147679 1.1129622811414062 3.547205282789839 104 100 96 0.055520106025851661 71 72 23 50
16068 -1.7288765828306643 -0.19705489724669173 3.8227429854008221 71 67 63 1.0389391057290946 6 385 5 364 3 367 90 330 14 975 10 319 11 558 13 802 18 785 16 670 4 498
5795 -0.65738245483707447 0.18468935589985866 3.5975112866835843 56 52 49 1.8847083137835787 80 589 85 745 79 459
5894 1.3218359052631317 -0.17982571298899777 2.8899309436455454 33 30 31 0.18249137204686985 85 385 89 288
807 -1.5444965455862678 -0.26755630063895952 3.7538683605928331 61 58 55 1.2068233389681431 63 552 58 400 59 379 64 548 67 409 69 357
10981 1.1068320407633165 0.22469456197656543 3.1646994821628822 40 37 38 1.0807906883831668 27 1241 25 928 24 690
12320 1.0441710592186397 0.88249886565629221 3.038642296265373 34 31 32 1.9429406592360969 77 549 75 396 19 423 20 653 15 610 14 297 13 286
16271 -0.56872412900270919 0.12479517038810201 3.3793970158431508 0 0 0 1.8595911458390928 52 449 63 1383
5998 -0.86310602461255082 -1.0804266111747749 4.4463005301708849 70 66 62 1.7544304036823912 58 968 63 896 62 1011 59 232 61 748 63 218 57 1043 57 1046 53 1345 51 1196 65 262 67 206 68 301
11184 -1.3495921296823781 -0.1325799903271937 3.6550733979844208 84 80 77 1.9098494100724348 25 842 24 853 76 678
13541 -0.60287746431091982 -0.013709886115466509 3.7165854645350116 49 46 43 1.952723560050982 63 828 64 1181 65 1010 67 573 68 984 68 994 69 1033 16 771 69 1009
3268 -2.176018864491819 0.0082621696250395563 3.5021157744026827 85 92 93 1.1620738968643898 7 368 11 652 6 670 3 250 3 586 90 197 66 504 33 259 73 264 17 268 9 451 2 765 1 380 5 267 15 538 13 825 12 752 8 384 4 353
13402 -1.4649991125684367 -0.20792182313433283 3.7181002709563282 56 53 51 0.72033940346495173 6 236 5 240 3 229 7 217 64 290 65 551 67 393 69 343 4 252
6331 1.3957063538062444 0.31166744026475468 3.2289085925189722 126 126 126 0.46770048965880284 86 652 93 362
2934 -2.2408293414360827 -0.46597707817712958 4.5093515579611942 58 54 50 1.1388060261348711 49 424 50 186 55 178 48 290
13207 -0.30495080520449669 -0.39843981934397998 3.9512931323486988 254 254 254 1.6761664282425801 63 264 64 477 58 192 59 164
12337 0.31748562029779726 -0.052499504219364113 3.2727437632900114 124 125 119 0.70226886634440522 20 599 77 665 78 253
2909 -1.7670014873951019 -0.19650262586754746 3.846596121971869 60 56 53 0.46767442635459494 53 1192 49 1056 50 1140
13182 0.82597134075537859 -0.76307981113613799 3.9132341251838421 33 30 31 1.245094430908515 64 341 65 318 67 275
12115 1.8973332587784375 0.53794910097589443 3.8960138651191611 83 80 76 1.9415900589133583 20 524 71 1198 72 456 78 542 75 958 19 1086 19 222 18 152 16 218
5662 1.7361113117692801 -0.043314477813291674 4.0851181836887607 85 62 55 0.64714467751018767 83 780 84 1002 89 762 91 900 87 472 94 520 97 452 95 434 88 388 92 545 98 578 99 276 100 434 96 369
15935 -2.2620839061711933 -0.25828547991536155 3.3899645253410333 28 25 26 1.1919720609651971 12 175 10 79 70 292
10749 -1.1894707378407807 -1.3818150816499579 4.2827378101281468 60 56 58 0.45469672027628688 29 872 30 236 31 732
4046 -1.3129671773302751 0.19605149857283452 3.9430248013011338 127 126 126 0.53713097196748949 5 633 73 581 33 655 66 321 17 544
1325 -0.44030453210915949 -0.72204070735247694 4.262184744119403 76 71 67 0.78916554077220236 58 816 63 833 61 472 62 405 64 908
11598 0.87940366742011411 -0.045155639311587545 4.2587807425759241 126 121 117 2.6748536894509831 24 164 23 383
3682 -0.18282700754402845 -0.49826790891009526 3.8519925812002103 83 79 76 1.632825964448126 11 95 5 112 6 124 7 134 5 173 3 243 90 437 10 67 8 87
12415 1.5010337615299159 -0.30423942570342555 3.5581820947859595 153 153 153 2.0617900295498703 20 621 21 614 78 1084 77 191 20 743 23 765 19 667 18 356 16 379
2987 -0.24453633987655699 -0.79478715311446235 4.2550818621383497 51 48 45 0.90235921534518704 51 909 48 1128 47 1357
14772 1.0377147622751879 0.75655349803385574 3.3955409808488013 126 123 121 0.89493970476414653 23 1176 74 487
4499 -0.78772977231373187 0.50243383222486893 3.8973118426163933 98 98 105 1.9482313418837862 66 566 90 594 33 565 17 694 15 919 14 970
1366 -1.1904225314129184 -0.093509678414069611 3.6605408737959002 95 92 89 1.506700110074068 58 703 59 1505 63 1337 61 822 62 876 64 1095 68 714
11639 -1.2499693075907063 -0.45268955938692756 4.1134199677862995 254 254 254 1.6892715359548907 22 240 25 405 23 643
11374 1.5001504533095527 0.63731823292906054 3.7477562516699461 106 108 112 1.2932736528585416 24 754 72 217 78 237 77 151
13731 -1.5898685309426834 -0.4192236986490438 3.6560393714005648 54 50 47 0.67371577055983112 65 1185 67 737
4303 -2.1932644853974939 0.40422479935289091 3.970199526553849 86 103 105 0.41712617600066221 90 701 52 669 33 604
14576 -0.94948487828269978 -0.21734462786402309 3.6322465359280796 45 43 39 2.469198927278395 71 926 78 804 71 901 20 756 72 647 77 704 19 773 19 777 70 989 18 708 13 512
1405 -1.606975696021034 -0.19690998003441193 3.9064216951202924 107 104 101 1.3121066063054025 59 1502 61 1257 62 883
12493 0.75311913357638882 0.12154915114142315 3.8390352983659897 60 56 53 1.1485148754360812 20 796 23 715 75 533 69 1006 68 415
3065 1.1461573323580958 0.31223062185734207 3.7129764023609382 0 0 0 1.7673690414086447 48 784 55 625 54 762
13338 -0.78227691761592932 -0.68820949699122258 4.082854323908224 253 253 253 1.7234507926768041 63 710 64 1258
11983 1.1346178606492134 1.3368231135386976 3.4527273039813466 64 71 50 0.622786535312844 23 1181 24 1154 20 957 80 391 82 392 83 912 84 646 21 685 77 982 75 424 19 512 74 592 76 447 81 609 14 894 79 423
12497 -1.3800985458375388 0.23951586389831223 2.9557215615550492 183 183 183 1.2686270839552374 20 368 21 798 75 558
13038 -1.1675256188709131 -0.359969454374237 3.8078284498673494 52 49 46 1.2549269623731985 70 1013 27 829 26 452 28 334 30 664 32 454 35 682 36 269 38 191 29 418 25 823 24 840 22 729 23 887 69 1092
10681 1.8848030001389309 0.3897676518851505 4.1538242723160659 67 64 61 1.8676705524287927 27 107 26 504 28 205 30 434 29 191 43 141 46 1237 32 199 34 471 36 194 35 145 37 126 40 141 42 104 41 195 44 146 31 210 25 152
5859 -0.19432462759132874 0.15020043984411602 3.4662289598397509 57 53 50 1.4874003585853313 85 99 89 89 91 145 76 72
10946 0.7648727208095194 -0.072975084009388611 4.1643818442162708 121 117 113 0.77579409525336973 26 905 25 688 24 366 23 1088
10919 0.68552414841055609 0.18527153235536403 3.9899077097242497 59 55 52 1.8353102147864184 29 499 71 574 24 1040 65 1153 64 806
3848 -1.3467482895120848 -0.23262262148349094 3.6516990609817266 54 51 48 0.74591227210719124 3 151 90 171
10679 -1.8840557529453263 -0.19875166862671562 3.7232098603957278 83 79 76 1.9150836931851263 20 274 27 147 71 211 28 386 30 233 32 281 27 870 30 684 29 673 25 256 31 401 24 183 22 254 23 188 78 412 77 276 19 283 75 657 18 705 16 813
10341 1.0903224350543499 -0.64372291128653292 4.8985050011036826 82 68 70 0.72548275448671717 88 3 92 2 96 4
12559 1.9750753743394427 0.40155079142696681 4.4379675145898414 68 64 61 0.47095893381503962 20 1029 75 1027
14916 0.23488204582824598 0.28787321283474787 3.8363648814392972 27 26 24 1.7678823583966337 36 489 28 514 32 334 34 658 37 1113 31 1250 24 489 22 443 23 1026 75 446 71 482 76 749 18 1058 74 800 78 1051 14 476
4643 -2.1841973229756091 -0.36332430152665085 3.4793769636987939 39 35 36 0.92351900061792735 39 145 9 219 2 254
3467 -0.32004990085167373 0.39195012935041901 3.3630681452280697 48 43 37 1.2949311850458869 7 358 6 341 3 359 10 415
13641 -0.61568516730810086 0.24411012647767949 3.4500319540783702 126 126 124 1.0200992040452985 11 550 68 243 73 409 12 477
4213 -1.5894012672870099 -0.31828691076684229 3.5934421318376053 79 75 72 1.3071504093621642 5 524 16 758 52 71 13 648
14486 1.6750380377427432 0.58273570108067174 3.2157539589879907 131 126 122 1.9284139253420918 18 109 16 508
2579 -1.7466170035727739 -0.3961731011024176 4.3259905512994346 83 79 76 1.803127546644947 57 285 53 326 56 395 49 405
12560 2.0381545643556427 0.35373410511425707 4.2342283198050135 103 99 95 1.1624713827113784 22 695 75 1030
3132 -1.3318862128137434 0.14303650073460311 3.9090948543715189 72 66 78 0.6408487745386563 7 320 11 329 6 326 5 381 3 344 90 209 73 322 66 285 52 283 39 250 33 300 17 250 71 1050 19 925 21 953 65 947 68 1275 69 686 18 926 16 464 15 431 14 742 13 458 12 361 10 364 8 339 8 678 4 306
13405 -0.23844741762144533 -0.73807983582663705 4.3034622330210466 77 72 68 2.1077087520661943 63 857 64 1255 58 821 59 934 64 916 63 924 65 882
14917 1.6575034240674589 1.5250016531762527 3.30568765755784 108 108 106 1.4732733164821048 27 1169 76 603 98 311 80 283 82 603 83 206 84 214 89 296 85 217 86 158 91 213 87 174 94 137 97 137 95 233 88 157 92 268 26 1179 88 716 32 445 99 189 92 150 29 282 92 493 25 789 24 458 71 1107 20 952 72 371 99 302 100 263 23 477 21 446 78 238 77 290 19 382 70 687 67 739 18 448 16 409 74 331 76 244 81 248 79 303 96 255 96 654
4644 -2.2644245569026284 -0.35269406126895347 3.6254539405316399 36 31 33 1.0983192977950067 5 230 9 220
3468 -1.2214393014314753 -0.056400615649927995 3.6636998523662769 95 92 89 1.6027914179644882 7 345 6 342 5 309 73 558 7 570 52 389 66 224 65 290 69 680 18 371 15 317 15 743 13 443 10 798 3 289 8 300 4 576
13741 -0.43911324512708239 -0.85771302653928605 4.2121550042268003 117 113 110 0.91278851018506724 65 866 67 819 68 693 69 658
13642 0.57006659609981147 0.58725587801997592 3.3623108644197695 84 81 78 2.0537383364007651 70 748 65 715 68 1328 16 390 14 207 13 419 10 334 68 332
12761 0.60522135722380421 0.48790291045594675 3.6424605465891773 128 123 119 1.1644084759872 19 1097 70 761 69 559
2488 0.75641532456086358 0.09702985884952281 3.9650988266891032 53 50 47 1.7908252483522067 57 845 60 681 50 685 61 705
2587 -0.73257284337062945 0.022889239519600868 3.4901446683792301 57 53 50 0.68667126437763948 55 715 53 554 49 532 48 633 47 856
12568 0.85485086923244402 0.64122030836383515 3.2750192343354438 67 64 61 0.7298980926593579 22 1109 27 587 23 801 21 705 75 517 20 947 78 1055 77 1014 19 1087 18 986
14925 -2.1403763934263149 -0.4168121291242074 3.257218978386299 254 254 254 1.3526119346037835 72 294 26 647 28 254 30 318 36 419 34 815 35 180 35 928 37 267 37 914 40 730 42 378 42 612 29 681 22 371 21 335 78 340 70 449 67 1099 69 1090 76 710 78 613 68 790 67 687
4652 -2.4414179440302846 -0.17815699903081433 4.3206162678000366 117 112 110 0.6392810159829192 17 256 9 268 2 201 1 169
13109 1.2812809904957623 1.5033229754374984 3.4767917283738545 0 0 0 1.4195233419581919 6 31 60 178
3681 -2.4235556602807411 0.61176781021785487 4.3570193313020864 127 127 127 1.2123416641390115 6 71 5 107 7 73 10 103
13954 1.0637602597974762 0.80964809042998698 3.3422485484527251 127 126 124 1.8445503484648709 67 599 68 626 69 504
1312 1.4752768972412775 0.046040486957731629 3.1130905098007511 255 255 255 1.3999484445064121 58 342 61 367 62 1401
11486 1.737076815668134 1.1285435083681539 3.9074722238874164 142 137 132 0.53124738993673937 22 1062 78 1010
11113 -0.3530301371703321 -0.7689520907356503 3.5234376321713268 254 254 254 0.66375739580348669 25 548 24 324
16200 -0.58508609517986288 -0.020929471916702247 3.4831056676304915 61 58 55 2.1778517236676223 72 522 77 791 19 640 71 1122 70 555 69 532 18 757 16 826 78 597 15 716 14 717 13 557 8 555 71 1118 72 566 4 527
5927 0.8768546467014452 0.6433793023454385 3.2415350253179422 66 62 59 1.0340982251607875 84 952 85 482 89 543 86 572 91 325
16032 -1.8204232858659355 -0.079837103065176551 3.8821402998212791 102 84 78 1.1864121295855676 7 371 12 385 10 121 59 272 61 334 64 190 65 186 67 140 68 105 69 101 27 229 26 252 30 148 28 766 32 90 34 89 35 130 38 126 37 112 40 178 41 181 44 129 29 119 31 147 25 140 20 104 71 100 72 110 24 81 22 92 23 90 21 82 78 100 77 83 75 126 19 107 70 98 18 97 16 88 15 69 14 82 13 133 12 75 11 255 8 168
10945 -0.21346935040091372 0.084618706480247205 3.4523920924905651 87 83 80 2.3343452135562335 30 1124 25 684 81 561
11437 -1.2604854203146727 -0.92185326978016391 4.367444147054881 93 90 87 1.9921629244299854 22 723 15 298 14 332
13794 0.96247528574116414 0.74720025526934075 3.3238025307386141 55 52 49 1.2432775040829624 65 694 67 1135 68 337 69 290
3521 -1.5482465661175868 0.5334561482264023 4.5079998358021065 255 255 255 1.6645937983305323 6 269 5 200 3 173 7 244 90 164 73 232 64 327 61 324 10 192 8 812
4366 -0.36552411709927646 0.86461568053424076 4.2386688025620334 100 98 67 0.64250152123298054 52 331 39 366 17 635
14639 1.8813440638876573 0.50402636241850352 3.808793751602233 86 82 78 1.3907964018426182 75 187 74 212 79 402 76 285
3481 -1.3092367005755321 -0.47822365804771338 3.8078540293805454 254 254 254 1.484867115276721 7 304 6 520 4 192
13754 0.42514722652518444 -0.49847442893112603 4.3975461957046029 107 102 99 1.9229053942717467 65 979 67 894 69 594
13655 -0.51937953469126152 -0.22850150944542041 3.3698304643610824 255 255 255 2.282926871812299 65 53 67 82 69 29
6211 1.3575396251299268 0.07716226808839774 3.958278692072227 76 72 69 1.4630044442212053 89 733 91 696 87 715 94 723
1124 -0.34049301679800675 0.15103873384649982 3.5795156638416481 65 62 59 1.5696226088828122 58 645 59 679 61 547
11298 1.217835671229631 -0.020467470801210662 3.4334086906772701 48 43 44 1.1433285225783913 43 148 44 313 45 283 46 147
4227 -1.7044031278535849 -0.30320036484534996 3.877422308595841 0 0 0 2.5076792268602741 11 351 66 128
10382 0.84612935795927979 -0.39761524409317961 4.284704540004352 83 79 76 0.78751602074226934 98 517 99 269 96 305
2565 -0.35068144522175343 -0.64812876440417866 4.2042735357447887 127 127 127 0.01615625921913472 55 89 53 78
12838 0.9265344155980918 0.8579383743045621 2.8557132322839873 0 0 0 0.20526108212193883 5 297 6 234 7 259
12739 -0.82788808265589975 0.11438538590819361 3.8645561382444629 74 71 68 1.2589635412537274 21 943 71 1068 70 864
2604 1.000075202370591 0.186298833671669 3.6534861167402939 55 51 49 1.0644638613150432 50 1178 54 803 53 841 51 416 48 436 47 311
12877 1.4286002317438522 1.2417884869656495 3.2711881946100712 111 107 104 1.819965576961083 77 458 65 527 67 483 64 1261
12585 0.050333891328868598 0.32811821901327054 3.7922480265096454 49 46 43 1.8031028365513391 20 169 72 235 22 162 25 212 21 121 78 232 77 173 77 901 71 742 25 743 23 157 22 891 75 215 30 966 29 1044 31 1286 29 1412 32 1226 19 1055 70 1176 74 170 74 760 76 204 76 741 79 220
12598 -1.1989875512322936 -0.15302165633962486 3.2248766753644946 0 0 0 0.88158445101990845 75 3 77 3
3170 -0.57534792667581747 0.42385734564876204 3.6692458243727861 127 126 126 0.74531914381826003 7 42 11 53 6 30 5 31 3 27 90 43 73 51 66 49 52 51 39 51 33 67 17 74 9 85 2 96 15 37 14 62 13 71 10 41 8 57 4 49
13443 -2.5826709033934723 0.13846015347358617 4.3737908907112129 92 89 86 2.3081246111387035 58 826 65 232 68 250 63 977
10975 -2.0163953290950518 -0.26536069725311884 3.3404302489022841 40 36 37 0.97581109917187536 27 848 72 582 25 866 71 728 21 234 23 270 68 1139 76 658
13332 1.6942367122996194 1.1572667010876057 3.345596325699502 254 254 254 1.9057620362175274 63 1266 64 1235 68 1230 69 1100 67 1188 15 865 14 908
3059 -0.14423113407452492 -0.81860278099923389 3.8484375242665507 110 105 101 1.7218973755513438 48 726 51 890 47 623
10385 2.1602058658777779 0.41055038972186542 4.1414621995575782 83 79 76 0.36324091039205414 98 332 99 297
12603 1.1505824931433746 -0.055923342776455595 3.0876585513257502 255 255 255 2.0895105213223064 20 50 75 24 74 29 72 52 76 19
11863 1.599686704367391 0.16357416125357105 3.5118742788548851 255 255 255 1.3761041707747439 20 325 21 488
2403 1.0376497298568432 0.13455456702537436 3.8109244371454896 73 68 64 0.35217129058180247 57 1308 55 930 50 834
12676 -0.26232606637410483 0.78068472787552168 3.7926280691942114 71 72 69 1.6332936395008031 72 684 70 323 71 587 64 1273
10761 0.24133798143881668 -0.65591821926300364 3.5950644911207363 56 53 50 2.2637605653359021 32 971 31 867
11532 0.73117325278605927 1.2205838917122318 3.6020181616215114 255 255 255 1.4132830311027158 72 1104 22 437 19 1021 65 242 15 287
1259 0.89143236499494671 0.58086234135821968 3.370587032520163 75 72 69 2.0467868340761051 58 15 59 27 61 15 62 22 60 19 57 21 70 21 69 21
12641 0.2848126824134728 -0.27434866900400445 4.263331917751997 62 48 48 1.0541529792670219 71 417 19 268 68 297 67 452
3213 -1.5757245009876442 -0.22400469250540597 3.7634159762521069 59 56 53 1.9010447543440239 7 282 63 1357 11 285 6 294 78 601 70 586 20 661 64 542 67 259 21 737 15 579 12 577 14 553
13486 -0.69302407462574944 0.019795913253947642 3.4525993013979361 53 49 46 0.84181030365945519 58 680 64 1085 65 550
11559 -1.1406466384355902 -0.25884468766319502 4.0174282427008592 59 55 54 2.5775977437366979 22 176 23 128 75 125 69 197
12673 0.77829292201465117 1.0872446644954583 3.2829187495461887 185 185 185 0.6134307895337815 20 927 78 971 19 478 16 459
10316 -0.27845177295373102 0.22353540681989389 3.2765756891074433 95 91 88 2.0012427085181992 43 1020 45 1130 46 1170
12132 -1.4181778505005425 -0.41538872645873337 4.0571560795027999 0 0 0 0.5080560583827991 22 782 27 811
12180 0.6207409871185855 -0.069118022670888804 4.2059091476048742 58 55 52 0.97677912825282764 23 1163 78 935 19 916
10934 -0.4345128497971496 -0.71721187597767388 4.3146122147948374 85 81 77 0.45272186721254021 27 708 25 582 24 626
3490 -1.3517971223180782 0.28339694626416967 4.1190829489262688 67 90 107 0.44060063086489309 7 711 6 691 90 684
13763 0.28191700301292755 0.22593365435828142 3.9878074026942927 88 84 81 1.9915912758035539 58 998 67 942 61 1155
13664 -1.7720912027626299 -0.47366676062632385 3.8805602388247862 93 90 87 1.0051951717869654 65 166 67 195 68 316
16394 1.2346952452173761 -0.71533084184709517 4.9451023547743791 43 31 30 2.7776121623137167 98 557 99 607 98 675 100 464 96 596
11307 -0.31774578926061753 -0.8877133063107413 4.224682541719063 75 71 68 0.9978377424445326 71 22 23 24
12694 0.95215780951512063 -0.8057813514700316 4.0227379383038038 39 36 37 1.3142778293045934 71 410 19 620 70 364
15051 0.92516341586202722 1.0239587440177489 2.9288161516468194 127 127 127 0.59129110700147225 80 850 81 605
4778 -2.2900606020173355 0.038077441679407985 3.8865690096503474 70 54 52 0.77561205704273672 17 511 9 549 2 521 52 576 39 630
12707 -1.3761117852316145 -0.90117092690302147 4.5867084331512116 253 253 253 1.3304466719638468 23 879 19 723 20 692
11950 1.0406211989196241 0.23924964931377352 3.2539946310519361 90 86 83 1.5206466833932193 23 541 25 585 21 905 78 551 77 852 75 844 18 833
2522 0.026349988423518728 -0.22677921119180366 3.9551505374040863 84 80 77 2.1514413319127121 55 1133 50 1072 53 1241 49 653 48 725 47 986
13316 -0.064330756850211543 0.10355141629127312 3.5219714965250017 116 111 108 1.3462875611065079 63 1193 64 1124 65 628
3043 -0.43054414227296195 0.38958613760449423 3.4513525525110693 255 255 255 0.21193524022813043 51 165 47 348
12207 -0.90207682132116873 0.46653256630145129 3.9319526255172264 50 46 49 1.9576712587689442 20 323 71 183 72 223 78 164 21 570 72 1200 78 1038 77 229 77 548 21 185 75 202 75 847 70 1068 68 1175 18 1084 74 236 74 757
14564 -0.04577777703408787 0.2661200146239544 3.7450869309492032 87 87 86 1.7913765988501915 71 995 72 729 78 879 16 839 75 243 77 325 28 222 32 580 30 995 34 402 35 889 38 587 29 379 31 1264 24 753 24 1090 25 691 85 355 79 178
4291 -2.1976843226220097 0.039293131088865708 3.6812950719699891 127 126 127 0.66900745753812452 66 685 52 563
10521 2.1395706412069617 0.39459327793117438 3.7322577404849495 255 255 255 1.3483994381222226 32 299 29 289
3450 -0.48090928187679827 0.46067151718373972 3.6281698303127152 94 110 114 0.89994951992444261 7 61 6 61 5 61 3 52 90 44 73 50 66 48 39 57 33 69 9 128 1 178 15 53 13 74 10 59
13723 0.44609960084371492 -0.19660119168180101 4.0339943092693886 249 249 249 1.8288628373476215 65 928 67 652 68 757 69 1190
5439 0.19024565831628065 -0.19446644242372044 3.9955067652144947 64 42 40 0.66935814705305718 82 507 83 706 30 727
15712 1.1741285678212678 0.24741655666504711 3.1554214010898751 14 12 12 2.0410827092534611 14 812 15 723 67 1080 27 1216 72 1160 80 762 77 902 68 958 69 899 13 705
10526 1.2756050348104517 -0.2339613781809016 4.112499956708791 255 255 255 2.1750479045469007 30 338 29 333
16015 1.0768723707182488 1.3315616614181742 3.0937549752715054 0 0 0 1.0098892135976072 14 895 15 894
10928 -1.8036633643698634 -0.080766416248167314 4.0542156305965191 254 254 254 1.6803842786613554 26 1310 25 556 22 848
1127 0.07179149172413736 -0.62561218945639396 3.8187453426559239 88 84 81 1.2671794574937993 58 824 59 706 63 933
6214 1.4617635606748891 0.86275682273767773 3.8558433382314252 51 42 46 2.3005539361272174 82 902 86 674 91 793
2578 -1.8323034213844047 -0.53558759553912993 4.449620412003684 82 77 74 0.56686935327448251 54 215 53 319 51 155 48 309 47 332
12752 1.5206740699941372 1.0765409140874476 3.6721378388091646 95 92 88 1.8532177428939238 77 976 78 681 19 963
967 -2.189807904942394 -0.42270968701174377 3.6173841361374088 32 29 30 1.2351638452005262 63 584 58 1271 59 1391 61 848 64 1083
11240 -0.66079362812222509 0.43094959047499337 3.7298773536442411 45 34 34 1.5678674765170486 25 645 27 1061 71 515 20 314 24 757 78 1046 75 862 64 377 77 856 65 349 61 1276 20 822
12789 -1.3086113435688362 -0.3577735467564554 3.6738234290632636 76 72 69 2.1110188314313567 20 1046 71 787 72 943 21 780 19 583 27 814 32 656 24 905 18 729 16 753 15 656 14 653 10 606 4 370
12843 0.017837352543364868 0.16723582174258531 3.8151052387994921 127 127 126 1.4766269834769303 72 129 70 186 69 261
2570 -0.78575579837832743 -0.98932814403899294 4.3917949356688348 131 126 121 2.0423722002320903 60 270 53 130 62 1036 51 129 47 237
5538 1.520252299494218 0.26257320403146706 3.4502687863671064 127 127 126 1.8428722223566745 83 307 84 243 85 212
10625 1.5384008592250047 1.0720169255252665 3.5749576744282412 94 91 88 1.3720604021045566 35 1085 29 1294
12282 1.1024461867638689 -1.0080901444845696 4.436386002145027 255 255 255 1.2806416383264707 23 900 77 274 69 778
4465 -0.28690100620073211 -0.23215778645730295 5.0835286512417017 124 123 114 2.6262527181253752 73 588 33 317
3449 -1.2721749215838583 -0.73083223987189661 3.9862000267831483 90 87 84 2.2529946381748491 7 72 11 37 6 57 3 123 5 78 10 42 12 40 8 39 4 44
15746 -0.72350752377671756 0.047271802105844231 3.4916218622377984 47 44 42 1.3818299887022105 15 517 16 590 64 596 65 671 67 545 16 793 14 538 13 483 71 669 72 574 19 647 77 779 16 581 18 451 70 592 6 577 12 553 12 324 10 512
10659 1.1749010356769298 0.051214659058250074 3.501344891536859 76 72 69 2.1451241459978223 27 1041 28 594 29 518 27 1042 30 1364 32 1285 25 1031 24 1033
10632 1.0817428534677636 0.30674501048348168 3.6268733909417912 78 74 71 1.2359014881349701 32 460 29 1375 31 752
14393 0.50271826915602169 0.8502332081602344 3.3122528110739884 119 116 114 1.6670558186488582 6 652 63 1299 5 398 18 969 72 1116 22 713 21 1019 75 674 16 1071 7 670 15 957 14 612 12 548 10 566
4120 0.17556899579419388 0.51155736994493106 3.3822953790427737 0 0 0 0.48210405011479218 3 267 73 166
15458 0.23396504950318997 0.34084603799345553 3.7280516639887384 92 89 86 1.3015176702382787 15 133 14 102 13 169 12 409
10371 -0.33389558869132863 -0.39719273205551275 5.3247703416191863 90 96 69 0.44432038453434569 98 246 99 186 100 136
13474 0.81238980659939475 0.23416243129466671 3.8831296380928926 92 89 86 1.7446053810398769 72 1162 65 450 67 1078 68 960
3300 -0.87259669152248753 -0.13300497301734004 3.5622055120365239 111 107 104 1.4368152217983419 7 421 11 316 6 432 5 723 90 516 73 511 66 472 4 381
13573 -2.2286609352292981 0.40146324231035813 3.9507690539671438 123 124 112 0.64511063871258389 59 1385 64 801 65 1260
15085 1.6479823564278708 1.1557042426719639 3.4791082092598669 143 138 133 1.1200970987164822 26 1188 82 910 81 917
4812 -2.2390911847884514 0.68146459248829239 4.3133020603052632 126 126 124 1.7330242338985025 17 415 1 418 3 724 90 706 52 629 9 795
12589 0.96317084760460014 0.20349646030425539 3.739204122715881 119 115 111 1.6065514428760117 21 493 75 1021 20 899 25 310 78 862 19 463
3161 -1.0076502975256696 0.33124787250039345 3.8934623017977823 127 127 127 1.5967474968431581 7 29 11 34 6 17 5 25 90 21 66 29 39 26 33 19 9 37 8 31 4 37
14946 -1.3329113941302595 -0.055481803914291361 3.6955198851342383 73 70 66 1.0303605447769206 72 1238 63 372 78 762 19 762 71 344 7 355 72 260 11 356 6 352 5 216 3 205 90 275 73 120 52 173 39 163 33 175 17 173 27 416 20 281 23 242 21 371 78 346 77 353 75 799 25 627 22 673 70 369 64 228 65 246 67 336 68 391 69 240 69 1008 18 372 16 594 74 578 76 591 63 134 58 124 59 147 61 225 62 208 60 113 60 477 57 153 56 138 54 140 54 424 55 258 50 55 53 123 51 158 49 128 48 204 47 493 14 312 13 448 12 215 10 228 8 216 4 335
4673 -2.4256211620980195 -0.23202161106182992 4.3381484250905542 55 52 49 0.43684877158110602 17 355 9 649 2 411
13184 1.7535208679866301 1.6906484972002689 3.5960752102449511 255 255 255 1.2958489118026089 61 567 64 348
2911 -2.363235219495706 -0.27897458566134214 3.6528598349566814 93 90 87 0.68480791012436448 53 784 49 1097 48 1205
1026 -1.5241556871504525 -0.79037214166947145 4.305419722113494 255 255 255 1.943932554569914 58 107 63 82 59 126 61 156 62 94 60 100 57 100 56 97
11299 1.7845728077106828 -0.1845267847066053 3.9950169993018507 255 255 255 1.6373441456613445 80 148 83 252 20 256 25 204 80 758 31 319 27 111 28 110 30 165 23 209 77 246 74 156 76 160 81 769 79 117
6113 1.5702326051123068 0.79325976759705952 3.759826931140668 79 55 38 0.39230066199085784 89 392 86 896
16386 2.4936390194556441 0.49787650861693789 4.0654320246996232 75 71 68 1.9451919762029637 98 618 96 680
12846 0.94509240438022624 0.038271674040846214 3.8992222944798005 76 71 68 0.60763199963988124 71 657 70 198 72 739
11507 0.49801810207752811 0.22024459434956919 3.8890695063937892 45 42 40 1.5246561789169117 82 1015 25 1046 22 932 32 738 36 520 38 345 37 500 43 331 44 633 45 988 29 514 27 321 28 464 81 798
4436 0.33873777091310908 0.4254976646002237 3.5208788603335708 92 89 86 1.5964872586434833 66 85 33 103 17 171 9 301
12616 0.78684581092504757 -0.31119485924134138 4.089305452253142 83 79 76 1.4060277002996064 21 41 71 77 19 82 70 104 64 84 63 85 65 69 67 95 68 87 69 149 18 78
5651 1.3642789432579387 1.0636417744005966 3.5793098315596068 134 129 125 0.58826602741704026 27 1134 84 918 81 927
15452 1.8963374298079425 0.66536318471483713 3.6326136161006986 90 87 84 0.94744952552543715 15 13 16 17 14 14 13 14 12 24
10365 1.0022943654758956 -0.78812214311669848 4.6778537424295745 127 127 125 1.1308521715173605 98 213 99 120 96 448
13553 0.99009023793998874 0.1843564834095702 3.6934570113047833 113 110 106 1.0294917390009297 58 1051 63 751 65 1123
3280 -0.24252168942672303 0.48041797258496149 3.4868986371886046 126 125 123 1.0987343459028129 7 49 11 106 6 59 3 49 90 79 73 67 66 72 10 69 8 71 4 60
13414 -1.2407859380214075 0.63404301062024071 4.4860447556195897 128 128 127 1.3732834788468971 64 1388 65 729 13 298
5222 0.11443551677521475 -0.26464118527189978 3.8356360650866059 99 95 91 0.055959907006030499 82 727 30 1103
15495 0.21065409654321579 -0.76115540850311258 4.3684074489353968 0 0 0 3.1240617931058763 23 892 71 843
11822 0.51673906697948802 1.0041818303746401 3.4770755145451546 127 126 126 1.4700714923713376 20 344 26 706 21 293 78 548 77 438 75 278 67 744 68 783 18 643 74 270 10 254 5 280
3018 -0.071411111116906387 0.066295465952504018 3.8684565985163224 66 62 59 0.810962135900685 49 217 48 251 47 276
13291 0.23000457868205465 -0.605621124401585 3.6145156669587064 255 255 255 0.91097703124609042 63 299 64 922 65 772
11890 -2.0836755147262194 0.23373220720130503 4.1163116458923517 153 155 161 2.0672265168360702 23 989 21 615 77 787
11349 -1.2942551545688767 -0.30120834926686541 3.737268540331252 80 77 74 1.7877630877122543 20 396 22 255 25 577 75 690 23 895 76 654
10808 1.7096575615806366 0.1239896976116992 4.2148757992191141 126 126 126 0.94735975418209362 32 502 29 453 31 214 26 349 30 224
1380 0.017851944356827128 -0.53875118324031102 3.7406299887625125 84 81 78 0.0083041808525208573 59 1045 61 1010
2937 -1.9980287738713212 -0.12996830317892372 3.3471031649860192 0 0 0 0.44889760590730271 51 684 54 451
15843 -1.2419637393043668 -0.2386539997765556 3.6941651679517258 100 96 93 1.1583793970499814 13 693 12 592 8 608 4 535
10756 1.0464745819072441 -0.9624115193308368 4.3536698203547815 34 31 32 1.7008182651003967 32 583 31 824 25 722 28 234
15846 0.30052338374832643 -0.41129752343186576 4.2460890220359149 0 0 0 0.61128505744351469 13 658 14 521
5573 1.4784284861744663 0.29540675072187444 3.237560180217673 124 124 121 1.0807905765767345 82 408 84 391 85 375 89 346 80 473 86 230 91 190 94 292 75 509 81 443 79 869 76 697
5672 -0.15349258255809456 -0.22946266241704233 3.4570556709422688 90 87 84 1.975601713780692 82 310 83 264 84 266 85 293
10759 1.6264415335846805 1.0800896848041932 3.6101020273912638 109 105 101 1.5478758109827278 26 1142 27 804 31 854
3302 -2.251577937276354 0.26172857646438713 3.8533888325538022 126 126 126 1.4308907319446871 7 336 11 342 3 302 52 159 39 146 15 500 14 948 18 1111 13 957 12 482 10 368 8 408
13575 -1.3101768749383937 0.49113405168685198 4.0953638925803881 131 130 130 2.7179467663463655 59 1373 65 1280 67 1146
13476 -0.43631816024242637 -0.82157225381134091 4.2486852983468886 73 68 64 0.65819665457821874 64 451 65 460 69 604 68 472
13406 -1.5814472226507448 -0.26208068905325155 3.7990003295067809 104 100 97 1.8842463873179294 71 680 20 687 72 1010 78 717 19 707 70 637 64 1048 63 646 58 699 69 679 18 583 16 630 15 544 15 548 14 509 13 559 10 593 10 635 4 614
15858 -1.8347582008418251 -0.093036954599008501 3.8078137501695997 80 78 76 7.4839833009732339e-05 19 745 12 703
5684 0.90779473834090341 -0.7569464213404643 3.5354661880466671 255 255 255 0.73354431061747505 84 81 85 29
10771 -0.6495477796329574 -0.75286047261530475 4.377969252550943 254 254 254 1.2462705625030261 28 799 31 1013
1343 -0.10957371809625548 0.32571115799775019 3.5473766679854224 95 92 89 1.1751925851063656 59 635 61 601 62 1050 60 1257 57 929
13603 -1.3393735041429495 -0.39316809693965288 3.710588289970338 56 54 52 1.3163117928248518 58 565 64 803 57 475 59 537 62 509 60 458 61 955 57 445 56 403 54 437 55 416 50 444 49 415 51 447 48 467 65 724
11246 -0.76403463102383673 0.095059014632727742 3.5246334555639187 103 99 96 1.7473918857730548 20 856 72 656 24 936 27 661 80 678 82 647 28 654 26 575 34 925 36 1073 35 1217 38 937 25 942 22 817 23 728 21 952 78 669 77 804 75 779 19 496 16 927 16 905 74 741 76 732 76 739 79 746 14 798 12 717
4175 -2.6410269626394585 0.053507620769784221 4.8603688230716475 255 255 255 1.4934695944119971 6 697 66 619
14448 1.6220991196089904 0.7336086914794584 3.5055635484837584 255 255 255 0.20562487326133402 63 102 16 75
3622 0.59072843444173129 1.0638295514837559 3.1581584411188097 205 205 205 2.1639536364536656 7 444 5 622
13796 -1.3670983036246007 0.37849596683650194 3.7193059340666292 127 127 127 0.92215814642577776 65 1395 67 1142 68 333
3523 -1.6864877096895092 -0.18014095621345882 3.6983039439856653 61 57 54 0.98834183273033194 6 345 5 206 3 295
4368 -2.1292123165714574 -0.45406836245806653 3.2409986526079306 34 31 32 1.8108868139929803 52 393 66 243 39 381 33 245 73 267
1282 -1.180457142947035 -0.29830027376776219 3.4833278568042423 93 90 87 1.3378723584386671 58 241 61 179 67 253 65 1194
12372 0.6074068373901178 -0.064727754001521712 4.1693430555596658 60 56 53 0.94055839874524649 20 905 22 603 77 914 81 458
13481 0.50278780371703979 -0.60523876956447131 4.195965657877708 127 127 127 2.0174056535272329 72 448 65 498 71 615
1291 -0.66042143536525788 0.11911242242993134 3.4768506388824076 53 49 46 1.0338270811476504 63 251 61 232 62 351 60 215 50 495 49 460 55 291 7 169 64 362 65 249 67 330 16 237 14 235 12 309 8 212 4 197
5632 -0.11302113839370158 0.33965683628187943 3.6097674590769717 145 141 142 0.5758850232915268 83 860 84 765 85 618 89 334 97 501
15905 -1.3486655646738601 -0.090190533245608481 3.6778043256480051 94 90 87 1.8696213766694632 5 204 18 293 71 850 6 550 15 736 3 200 66 166 7 575 14 679 12 779 7 574 6 539 65 1345 7 577 61 1316 64 1342 10 520 10 753 78 772 25 964 8 514 8 644 4 572
15806 -3.0002248714333608 -0.24659679222643346 5.2391842119701213 0 0 0 2.8850560865518577 13 473 68 723
5533 0.95632683666060447 0.74085791310065818 2.9518020050957268 92 89 86 0.80835575067235776 83 225 84 226 85 157 89 98
10719 1.1877364356753624 -0.75918643941503672 4.9254379393291465 67 65 51 0.44042337609504184 34 440 38 1086 31 349
3648 -2.6425151608832764 -0.11863305652790869 4.7345163344456926 255 255 255 1.8125183713513622 7 726 5 700 52 654
13921 0.58222037898083978 0.60221260514165198 3.3127197956965042 83 79 76 0.85522102076895079 68 334 15 254 72 322 8 457
3316 -1.6910289342785758 -0.19439575326300304 3.7774662318257466 96 92 89 1.553455644894842 7 354 11 600 6 350 5 203 90 421 3 571 73 100 11 101 13 810 10 754
13589 -2.3799843059735801 -0.19573105566443219 3.9024986827087056 20 17 18 1.6968446871696727 64 1340 65 1371
13490 -0.25872128061079991 0.67724970075799606 3.7115509683017089 100 88 71 1.386202062778823 19 553 64 1208 65 612 67 603 68 627 69 732
4062 -2.5250241688832888 -0.18521844488100345 4.6145773615687391 71 56 43 1.6341012451806922 90 707 73 690 3 416
14335 0.84117531770974485 0.75852237841082837 3.0578109854362352 37 33 34 1.3771781459347401 69 1066 70 1274 14 959 18 669
2490 -0.29167873953240203 -0.16280613742863956 3.3626567910093579 69 65 62 1.40287653645338 55 872 50 719 51 1192 48 543 47 1328
10848 -0.68642313674624611 0.25104772456066377 3.5037825048376692 73 72 71 1.8504430516875636 31 823 27 761 26 562 28 343 25 336 22 602
12390 0.78182484137730102 0.52354884872827123 3.3980781621190612 79 75 72 1.7596538350250457 78 1070 77 1022 70 1069
13499 -2.3476495242500284 -0.084681378521449177 3.6725376853819998 126 127 126 0.42881839191174387 64 1197 65 689
5746 1.0144972362421789 1.2704388518831879 3.3875105009529416 127 127 125 0.49849137948025407 84 438 85 409 89 428
10833 -1.1279825420542731 -0.15993961435791915 3.6951201268740244 60 58 57 2.0462335573642711 30 920 36 943 27 939 26 1022 31 1092 78 823 76 669 25 960
12858 -1.3541841481918886 -0.39765062093944026 3.9994165760940286 93 89 86 1.9637867462533947 71 245 70 283 16 256
16334 0.79648487855163896 -0.95270831217929508 4.742062560158729 0 0 0 2.083320738536421 88 101 99 71
6160 1.3280827999209266 0.12820172358551513 3.9133404383165953 52 49 46 1.3553885476243945 86 342 91 344 87 398 93 389 94 418 97 563 95 413
1073 0.79532672266145588 0.85776145993682107 3.0361960151283505 40 36 37 0.82553910027077959 58 259 63 496 59 377 61 247 62 339 57 307 56 228 54 244 55 337 53 153 49 359 64 828
11346 0.64215104168853998 -1.1077586303081952 4.0664995641175175 29 26 27 1.1380728864154654 20 384 22 248 21 395
13372 0.78011915827218958 0.54398513881205057 3.5874461323746702 47 45 43 1.9294678951380475 63 628 64 598 58 750 59 1110 67 1247
11015 1.5817403451322243 0.22965621100212724 3.8926753670673579 157 157 157 1.8000035441041424 27 1208 25 1192
2904 0.3525767925287146 0.10179728680906136 4.0566545497894886 57 53 50 1.0710800767354718 51 242 53 188 49 142 48 177 47 549
10667 -0.84789692732251487 0.027197381910186138 3.546609569444414 112 109 106 1.4456127863512334 27 725 26 571 28 351 29 723 36 889 35 827 38 919 32 713 37 270 40 183 42 1058 41 872 37 843 31 286 76 719
3596 -2.1726091035843664 0.43848606503890719 3.9846933673249545 126 124 125 1.3016094564286216 6 494 5 503 90 458 66 678 52 342 33 320 17 444 2 570 12 375 8 396 4 330
13869 0.98744162672796942 -0.94458072646497826 4.1896148751828539 33 30 31 1.5153132938117446 71 251 19 271 67 274 58 296 63 293 57 249 60 307 47 651 48 712 49 310 65 213
11623 -0.70590506649091433 -0.2462906100880525 3.9086701824466075 251 251 251 1.4570850906856447 28 613 71 930 23 550 76 646
13980 0.06431863994571578 -0.26610918070183176 3.8809633455305734 86 83 80 1.3070595496488984 65 926 68 886
3707 -0.96587721417568606 -0.22285293843460383 3.5920772158753587 58 54 54 0.93703589047535296 5 79 6 122 3 78 66 102
3443 -1.4362944215909963 -0.15659133474279124 4.3121072748684828 93 99 106 1.2820309347583354 7 0 11 0 6 0 66 0 52 0 90 0 73 0
12732 -0.35518945933869656 0.080509593970437027 3.2451150083808153 92 88 85 1.2300440321828248 20 854 19 880
3304 -1.5552644288859248 -0.067294884615510378 3.8168722623747064 125 124 120 1.1829327974216775 7 367 11 365 5 689 3 255 73 168 66 155 52 155 18 754 4 346
13577 1.6389389738871427 1.2741816410824118 3.4399751448347038 122 117 113 1.4152249283787122 64 1215 65 1298 15 902
10889 1.0071332658503955 0.14124830287423082 4.0212969352766157 96 92 89 1.176865484925546 26 110 30 170 25 160 31 104 22 109
1461 -1.4293630583068997 -1.0523589625113048 4.4796708813629911 127 127 127 0.74165410303191703 59 21 61 19 62 21 60 18 57 22 56 18 54 20 55 21 50 24 53 25
11734 0.067972617780444167 0.24877278810089282 3.980178763030997 126 126 125 1.6134671622152417 27 187 26 189 28 309 30 178 32 181 34 180 29 158 31 149 25 213 24 268 23 1107 26 895 28 550 25 1009 77 326
11965 0.9359650930913973 1.0713640714997033 3.0565982527656121 119 118 120 0.59572490000813449 80 569 21 1004 16 975
3333 0.42648260578318897 0.86633623987705743 3.3721236733233777 127 127 125 1.5080164628318062 7 64 11 71 6 62 5 95 3 87 90 82 73 98 77 57 16 61 74 67 76 57 79 70 15 47 14 55 13 51 12 41 10 51 8 59 4 71
13606 1.2504199343235349 0.041269294812527592 3.2244830475564661 52 48 49 1.3710728861612702 63 209 58 214 59 223 61 209 62 192 60 189 57 189 56 174 54 177 55 165 50 173 53 173 65 222 71 162 20 176 72 188 78 184 19 179 70 135 64 221 69 208 68 268
13507 0.099735401229905457 -0.3340297358138074 3.8824361324773848 88 84 81 1.6105815882938435 64 867 65 735 69 854
16237 -1.0247635793321204 -0.31877816651753604 3.7474854347096116 0 0 0 0.70434026528929661 7 34 15 444
13634 0.79406135409209266 -0.51379495499926586 4.1858655304430048 92 92 92 0.76662836810074664 70 88 19 48 71 51 72 49 65 102 58 100 63 94 64 85 67 96 68 99 69 90
15481 0.43830743342950063 -0.76726699895584527 4.8014888382805649 255 255 255 0.12893437046754053 16 378 14 338
10394 1.7682950643172921 -0.059491314225116013 4.1012371904126237 75 50 51 0.63282614996035158 97 690 98 579 99 390
13497 -2.5649589610818704 -0.25377185333311642 4.5046171106741362 83 79 76 1.0161667320797783 6 244 65 676
3323 -1.4643386543168415 -0.39890892511672815 3.8530441223553211 75 71 68 1.5986207918738984 7 4 11 6 6 3 15 4 13 4 14 4 12 3 10 5 8 5 4 8
13596 -0.28839618857832627 0.13374343332745137 3.8581758122598382 93 90 87 1.038704350302581 64 1169 65 1413 67 543
12612 -0.27858196256256623 0.55842320386143296 4.1144909062255648 0 0 0 0.963630672477644 27 60 75 40
3033 1.4307697285392125 0.068505612524223936 3.4463032585802544 35 32 33 1.8181393035711497 51 388 47 230 50 518
3779 -0.8024180513725454 -0.04066032354301688 3.5489660888263663 52 48 45 0.63219512763553709 5 593 3 591 90 490
14052 0.89370758924334404 0.33599294681734432 3.6812270150957049 70 67 65 2.1877477352807531 65 205 67 224 68 603 21 1114 65 1020 69 1136 14 404
16076 -1.7129205251305206 -0.11249500452300787 3.9271841741956224 102 92 87 2.4027743408314457 7 370 72 994 11 649 10 716 6 659 3 695 39 122 15 505
5803 0.92908217241560664 0.99909108233601107 2.9505982019823116 96 74 85 0.34353800363986992 80 857 85 815 81 975
10989 0.30333665243752445 0.17504869094932057 3.968505461114709 54 51 48 0.85252005834031008 26 1219 25 1012 24 747 83 834 22 896 23 1094
13346 0.50496174646182668 0.50295163439603674 3.2684442157885298 135 130 126 1.7004979543221292 58 1110 63 604 64 1299
3073 -0.24131109634474643 -0.85979995951125476 4.1172940612741327 87 84 81 0.17103061123672533 49 973 47 832 51 903
10574 1.9339057535480675 0.43200466233993157 4.2382219059979365 136 131 126 0.85193271389293113 34 636 29 803 31 949
3503 -1.7728231807833879 -0.33509763517694641 3.6598437519247784 60 56 53 1.32779659585104 6 227 5 34 90 517
13509 -0.21895346910721794 -0.71285124909142417 4.1861159768556009 112 107 103 1.0762038835531278 64 915 65 745 67 733 68 811
5767 0.99042158071477326 0.93485987937010251 3.494619884000997 90 59 49 0.62272903751690045 82 480 85 514 93 885 94 909 97 717 81 387
16040 -1.7307139515443997 -0.046509911600716054 4.0043820876429059 79 50 53 1.283181719738123 11 325 6 414 3 382 90 586 10 458 5 612 71 376 78 790 19 898 18 465 18 741
13530 1.2170293841757414 0.019340078498007032 3.5842605777278993 245 244 244 1.1476292158927439 64 427 65 958 14 220
3358 -2.3995855565664845 0.065021794272967462 3.5708564087370851 63 60 56 3.2493588679355243 7 228 6 168
13532 0.37764089085091651 -0.46844318685520098 4.255481156244258 87 83 80 0.76072013745564693 64 844 65 970
12575 0.79699020168171897 0.0024245526756770325 4.0688109851994048 29 27 26 1.7059418069427448 21 967 25 687 22 490
2401 1.8515464307848328 0.8134990167265872 3.4869328665853443 82 78 75 1.8291336534960749 56 877 60 630 55 914 53 876 51 339 62 394 61 431
3317 -2.2489000590244155 0.12663993580749802 3.7047171522820328 126 126 127 1.7415551859724565 7 445 11 605 5 431 6 729 3 441 90 308 73 323 39 170 33 85 33 484 10 469 8 712 4 410
13491 -0.37445144249808238 0.035968862747805877 3.4207620642676324 92 89 86 1.4326040622855256 70 892 65 620 67 928 68 716 69 1012 15 725 12 662
16221 -1.3637363734838752 1.0014085818054901 4.6245243332875408 255 255 255 1.307712145798523 11 1 4 1
11134 0.80511836750915655 0.15066830783480231 3.9059846481850307 62 58 55 1.780862413343107 80 757 24 485 21 567 22 930 75 852 19 864
4063 -0.39431834316234343 0.95388719420640844 4.0950626905082972 72 87 67 1.3656711395416645 5 321 90 477 52 335 73 696 9 421 2 469 1 409 39 275 17 449 66 267 15 910 14 913
14336 0.93756835970948926 0.72788449027401536 2.8357684614141112 127 126 123 1.6090936847840542 7 210 19 206 18 678 15 493 70 1090 14 358
3023 1.4898333361006884 -0.20502482877531938 4.0722389642255763 176 176 176 0.64818563945510899 48 105 49 114 50 154 51 87 47 106 53 114
13296 0.60092004178434921 0.023750023960547342 4.037690180928875 60 56 52 2.25394188757434 64 960 65 22 67 17 64 17 68 15 69 964 18 19
612 0.51715395408619824 -0.22085478701095557 3.5881757133864567 89 85 82 1.010057373092488 71 737 72 983 77 837 75 757 68 747
10786 1.4624345837733217 0.44269797215734313 3.4547152901319609 122 121 120 0.76725546792767063 30 436 31 1196
2541 -1.2749667293349956 -0.35443667062240142 3.8561204611374329 71 68 65 2.0639686033592786 54 1261 55 1238 50 1232 61 1042 62 1117 56 722 53 1263 51 1077 49 1174 48 1178
12522 -0.11591818879095961 0.12043060012739042 2.7926042097862038 79 75 72 0.62057202196180539 23 947 75 748
13423 -1.5875461938857851 -1.1123916625062362 4.2785969300980895 255 255 255 1.1404198954963372 63 34 65 43
3995 -2.5374995369185642 -0.13589185747752852 4.4605557653507013 65 57 57 1.3721426259202729 73 290 66 263 7 335 8 23
1363 0.7894540623041052 -1.3269223518691955 3.8179460438591275 43 39 40 2.0043188919418449 63 802 61 789 56 553 54 549 55 587 64 804
11636 1.8476544544241 0.33758128372915297 4.2226546670844547 74 69 67 2.1928462630906331 20 511 27 584 23 628 21 1111
13562 -0.030877466570456799 -0.024564733732223315 3.4568211561189774 119 115 111 0.69169381081827941 64 1360 65 1196 67 1090
10857 1.0595538652926568 0.2697311332345721 3.5822895886533463 53 49 46 1.5650357250578169 27 1232 26 804 28 1171 30 1333 31 772 29 597 34 649 36 152 35 160 37 88 40 104 42 81 41 97 44 84 46 110 38 654
13308 -1.8637245183897329 -0.25769668294991471 3.8413636015317469 59 55 52 1.0565903652885278 63 366 64 1061 65 209 65 591 67 194 68 192 69 232
10603 0.33320516423753549 0.012351320607528214 4.2175870611342035 128 126 124 0.3964761238069851 30 332 32 900 29 1021
12513 0.97781023139260248 0.7668363947292216 2.9705529477882759 32 29 30 1.1961973019819054 75 675 70 1104
