# 3D point list with one line of data per point:
#   POINT3D_ID, X, Y, Z, R, G, B, ERROR, TRACK[] as (IMAGE_ID, POINT2D_IDX)
# Number of points: 369, mean track length: 6.5299574797062236
4592 1.3583682386091436 0.019817355553493 4.8236044559773452 92 73 70 1.0581375041361789 28 589 30 541 34 409 39 413 40 384
9679 0.2240438815848709 0.15229889977800221 3.4893264113496683 45 4 4 0.71566131552095624 54 271 53 264 52 638 51 401 48 722 49 731 47 669
5703 -0.069521803750688796 0.6002097838348377 2.0485014140302877 76 74 66 1.3511978404971685 40 203 41 256 42 169 39 146 43 412 44 156
4594 -0.26949480441579549 1.0550350678260305 3.1816112460408208 254 254 254 1.7146300891826787 29 615 30 335 31 173 32 160 33 413 34 468 32 518 36 207 37 241 40 143 39 212 41 390 42 255 43 299 44 122 45 195
9681 -0.0015389810056587929 0.61261097224904881 4.3846385719265619 111 91 88 1.2455189513049725 55 418 52 783 50 446 51 513 49 346 48 332 47 338
5169 0.58801127101421191 0.20011770164554482 4.5414795061558975 52 31 30 1.4153365683525019 31 134 33 179 36 127 37 128 38 63 37 56
5710 -0.047131487115558125 0.78291894721663691 2.1510040083217015 255 255 255 2.054765302259244 40 226 42 236 44 552 43 690
4601 0.60041045130235848 0.4049776167548817 4.2594725782460952 10 3 5 1.162921926896813 28 559 29 637 30 572 31 374 26 484 34 399 36 543 37 387 38 529 39 327 41 375
9688 -0.17440793455513071 1.210079252289666 2.7174626170734513 82 78 61 2.0653708412505529 54 394 53 377 52 708 49 228 49 462 50 235 48 220 48 347 47 234
3364 0.75638625147372029 1.1929398179095216 3.7670705040156607 0 0 0 1.0843102283660562 83 723 84 726
8451 0.89667641723364544 1.0947694437042341 3.588454408733639 37 31 27 1.7930706129756382 77 637 78 632 83 485 84 390 81 520 86 575 89 529 94 410 91 622 96 420 95 569 99 624 92 586 100 403 92 637 99 634 97 490
5721 0.71314731353392535 1.000923039798328 3.7089632163353015 64 61 56 1.2956285975636461 40 334 41 446 42 325 39 633
4612 -0.25393087392309627 1.6659458311426454 2.6693069358586117 55 52 44 0.60806656245152924 26 698 27 412 29 753 30 645
9699 -0.13505527161774247 1.1110725165358637 3.0571886014547536 39 5 4 1.2529542091412154 56 451 53 496 52 539 51 444 50 653 51 680 49 687
3375 0.86131224900921821 1.0304676972857922 3.4770312058558646 52 51 50 1.984336270153223 93 764 94 720 96 517
8462 0.306774460929708 0.41669697180023163 2.7499416035149196 62 69 60 0.026281391443982678 92 292 97 214
5732 0.68975067791912892 -0.33528820979504365 5.0217893543247332 56 42 39 0.065826251533375069 40 518 45 639
4623 0.65245345379993469 0.61697802139875324 3.8057169613553343 25 6 5 1.0518490137770031 29 17 30 13 31 15 32 15 33 13 34 17 36 16 37 15 38 12 39 14 40 14 41 14 42 15 44 28
9710 1.2016414123816985 -0.19280875807933176 5.002535696138021 53 42 39 0.4509359131791239 55 634 53 601 51 526 50 428 49 435
3379 0.44238876412302885 1.2743774037055813 3.0487178437257616 40 38 35 0.68368799986594397 91 586 96 547
8466 0.42488630904293795 0.087631674535899082 2.9900802532410977 248 248 248 0.025491958001060556 88 294 97 289
5736 0.54014550300787445 0.71972962182118416 4.1841709386710697 18 6 10 1.1448104855848587 41 320 42 444
4627 1.2902399576745962 0.33155299782738284 4.7252439309290182 85 86 78 2.0161664899226341 29 63 30 31
9714 0.82555554123729258 -0.36029842790495592 5.2071489740775858 72 58 56 1.1359310042927853 54 603 53 616 50 588 49 581 48 761 47 758
3380 0.91259755330747172 0.96846372994402707 3.4187638534053297 54 54 52 0.4084022905355954 91 470 93 746 96 549 95 396 100 445
8467 1.2528481348207541 0.85955597627852809 4.4387208046157802 78 75 65 0.17136803524563962 92 556 100 529 97 322
5737 0.57366371851671916 1.5667269669921939 2.9052402500456487 21 27 10 1.9373001447547 40 353 41 309 42 463 43 209 43 461 44 149 44 412 45 360 44 416
4628 -0.2599455690939661 0.54775240072849063 1.801082111746495 30 33 31 1.448043566672685 29 60 28 41 30 45
9715 1.463908263342971 -0.16925807721532488 4.958433291503419 53 15 12 1.3723080674390324 54 556 53 618 52 605 51 548 49 408 50 540
3384 0.30099474099678764 1.1926179784887414 2.8633757236197286 13 12 11 1.0165124047348968 91 574 94 556 96 575 95 462
8471 0.52587936171257343 1.1100024184828883 2.9719859482554187 42 40 34 0.15715444540887724 98 458 97 427
5741 1.4451734539090975 0.065199358918478223 4.787707336025731 63 18 9 0.47697359293686187 34 594 39 612 42 489 30 554 31 611 44 482 28 581
4632 -0.28398989783826967 0.3578621501280862 2.0292811022843438 255 255 255 0.64808773015403098 28 59 29 70 30 88 31 92 32 115 34 427 33 187
9719 0.15261315880567067 0.19657158425073121 3.4594461938770769 55 61 54 0.52088842251552958 54 667 53 649 51 280
3387 0.7307838580741659 1.695046266001349 2.9254777850656568 5 4 2 0.97256634384983087 91 624 96 614 92 417 95 426
8474 1.2029823721456592 0.83407989453715248 4.4727040621542073 67 64 56 0.1756289355161505 100 552 97 465
5744 -0.20366047495181244 1.3927686567960391 2.979115474817811 105 94 95 0.14697105145553657 41 669 42 536 43 414 44 358 45 384
4635 -0.061234770253388963 1.4498188569489192 2.5418753156789764 60 57 44 0.46157899976329286 29 55 30 103
9722 -0.13842222860425335 0.53893512370777719 1.8834087475393513 28 25 26 2.2924755730572239 54 696 53 703 49 214 51 166 47 443
3390 0.38921805248787955 1.5482919021274393 2.890624415674651 5 3 2 0.36387626627948472 91 648 96 628 92 511
8477 1.0064600838721027 0.56710017268884605 4.4354458332269147 45 40 37 0.83762278156908065 88 483 97 508
5747 -0.45789362145843981 1.3513816154133953 3.2173480441468501 247 247 246 0.65273695938927301 41 576 42 547 43 372 44 670
4638 0.15974638680569694 0.28950039216156676 3.0535320275184716 89 95 88 2.6132604486913724 27 76 30 127
9725 -0.4894386003162291 1.6072021790286724 3.0755311906492611 4 6 7 0.48851881230378674 58 210 53 753 52 492
3398 0.71182901464700632 1.7878984719726656 2.9202147436818304 3 2 1 1.3427026257414441 94 749 96 683 92 392 95 215 99 651 98 503 100 474
8485 0.28255828377331982 0.36416793246448748 4.6653705810446038 58 18 14 2.3665497700682656 69 1 66 1 65 1
5755 1.4343582919522413 -0.10009001996381423 4.9769801271242997 28 7 6 0.19178037852596896 38 482 42 636
4646 0.78858262901055698 0.57028274574434756 3.3632497875645475 20 6 8 1.7044648798515354 29 263 30 169 32 316 33 145 34 192 36 122 39 409 41 682
9733 0.39411751993998329 0.079534202710724616 3.745723388110191 59 8 9 0.26918180822236482 54 683 53 804 52 672 51 604 50 599 47 379
3824 0.39603940092021295 1.7472024888648572 2.6518027307162253 62 59 54 2.6016693347531894 23 474 83 788 87 773 25 491 26 687 78 563 80 494 81 538 82 468 83 496
6181 0.10377714348234925 0.94070219285061285 2.6243419164817738 39 15 12 3.3870649821860832 14 43 11 115
5072 -0.25236638446349263 1.2299365023628248 2.4314112912531645 61 56 50 1.2968046094090317 34 120 36 13 36 180 37 14 38 22 39 27 40 22
10159 -0.24381243624056684 1.2650095677039501 3.2368740246919061 66 56 49 1.4859087064790175 53 700 52 706 51 757 50 679 49 799 62 665 61 386 59 361 58 617 56 432 55 451 54 739 52 704 48 634 54 742 47 426
4477 0.28487368115657985 1.2746605741921888 2.8415081167020082 15 12 11 0.14834657060278372 95 375 99 343 98 456 97 303
3567 1.1100615900364719 1.0077644170704412 4.231482316579755 51 49 45 1.5172150530206761 91 674 92 647 95 542
5924 -0.42601358066160666 1.2361592169911342 3.0664614750746111 1 1 0 0.43149876717859598 41 381 43 540 44 495
4815 -0.297907993847844 1.4059388418423564 2.4758835826172998 37 34 28 1.7973950371076641 80 275 26 616 82 304 31 650 27 727 28 689
9902 0.74000474040977238 0.42392760279074548 3.8521041481713887 14 9 13 1.2537995772253432 52 827 51 413 50 546
5103 -0.039759831440997859 0.90127216858860493 2.8793400861872369 40 7 6 1.3045194836456167 33 450 41 257 42 342 43 267 44 158 45 160
10190 -0.54801293987106847 1.5904459500686592 3.4351537888547257 17 21 8 0.25912964269990102 49 753 48 314
3828 0.307097470837564 1.0634661215433345 2.8721961555328503 41 36 37 1.9227398755116694 81 127 26 448
8915 0.67497998930663594 1.5906205474102006 2.8975679034355064 2 2 0 1.0610186951284764 63 471 62 247 58 268
6185 0.75337959445068925 1.4534775250954972 3.0192406470648283 9 9 4 1.0413463500231088 11 8 14 18 10 17 9 8 66 21 65 17 64 23 63 25 62 20 61 17 60 20 59 25 58 23 56 23 55 26 54 24 53 22 52 28 51 24 50 26 49 22 48 18 47 25
3842 0.77637643755385544 0.586130471622343 3.4749395811698092 18 4 3 0.82067189413308683 26 62 27 87 28 70 29 61 30 33
8929 -0.0028254455560246731 0.95852967683301016 2.910290019852555 69 29 27 0.60799217022627561 63 663 62 337 61 401 60 341 59 373 58 458 56 443 54 760 52 723 50 665 49 698
6199 0.75824495195167729 1.3472383121345719 3.0731263348621325 255 255 255 1.9726937302425442 11 95 10 110 64 38 63 63
3850 -0.28409499393456056 0.69266205599002406 1.8731712937663378 30 28 28 0.80644953686020115 26 108 27 136 28 278 29 285 30 137 32 167 33 251
6207 -0.065023370172491463 1.0855626812297698 2.4531789264392869 62 56 51 0.83274754884724034 16 707 10 170 14 601
6464 -0.36759432074084691 0.70593958439055648 2.0023157251239954 13 11 11 0.80656206770424765 69 217 67 218 66 223 65 296 64 319 63 335 62 287
2998 1.408039180285229 0.17044256295562552 4.6523452658388376 43 9 9 0.90510131589573972 89 682 93 505 94 534 91 291 96 643
8085 -0.35938590579511193 0.68835008382029739 1.9785346016102761 47 43 37 0.93624982128220058 4 262 90 533 18 597 15 424 14 403 11 417 67 613 12 281 7 287 8 406 3 302 35 569
5355 0.93667353211410953 0.36722107472433779 5.1511326342291897 255 255 255 0.87156963532990039 38 141 39 150 40 138
5707 0.91992641411978449 0.7748358100776348 3.1344251352149963 255 255 255 1.6730795592688448 41 228 42 201 45 147 44 93
4598 1.1737171355371638 0.19537543227233289 4.6314515298263661 74 72 62 1.5060261349155963 28 418 29 629 32 402
9685 -0.038208193068665852 1.126783600073803 3.1149293097521498 37 40 36 1.1169849166260744 55 170 53 354 52 376
3891 -0.041149501765799887 1.0915699867963766 2.6836073020707474 64 61 47 1.5962112311566603 26 636 27 437 30 501 32 711 34 679 38 644
8978 0.50482640722768413 0.2951704982605497 3.6670749791323605 53 48 40 1.653383352600204 62 559 61 491 59 154 58 189 55 194 54 173 52 548 51 429 50 243 49 295 49 307
6248 -0.27403234695922674 0.09761838594938195 1.6124541860523198 255 255 255 1.2432384172860569 15 72 10 524
3634 -0.31744782334098909 1.0374807926698797 2.1737804362284314 20 18 13 1.214867978302439 23 208 25 221 27 466 28 349 29 512 31 274 34 472 32 87 39 66
8721 0.11738409907963993 0.48709004274176071 4.1132014059390158 41 18 17 0.48505874572110819 65 454 64 583 63 351 62 371 61 328 60 373 59 326 58 490 56 384 55 402 54 449 53 276 52 296 51 492 50 334 49 342 48 470 47 459
5991 0.22856115144743699 -0.11613402759004161 5.2555191365080542 37 38 30 0.76591758728917492 44 579 45 782
4882 0.54151645014122307 1.3367812408286399 3.0666912713202104 19 15 15 1.0426964837114621 30 643 32 484 33 353 30 319 34 270 36 254 37 608
9969 -0.038093748844731386 1.1836164896492942 2.3668953816817528 255 255 255 1.4786324210667443 51 681 49 51 50 47 53 373 48 53 47 51
5182 -0.40376205142259824 0.78356295134099074 3.3303371949183447 58 47 38 1.026052526151823 32 79 36 249 38 160
10269 -0.32983035722481835 1.5447918253475692 2.1336394552313451 32 32 32 1.3104754752779926 48 129 47 654 49 149
3934 -0.27124552767341598 0.91504102719116198 3.2655327604578046 54 51 41 1.8050810167510165 27 646 23 236 25 249 28 648 26 251
9021 0.55661703180507394 0.2010611050741474 3.8638604945493897 38 36 32 0.39816367656145513 62 128 61 164 60 122
6291 0.3477712812247869 0.27493395403512183 3.5016133887237855 89 95 88 1.4713254033728524 71 13 70 12 69 10
3366 0.65413933404240165 1.6470064172463954 3.1481648337302301 4 4 3 2.3092675274093395 89 510 96 451
8453 1.387835740148522 -0.098497480323703035 4.9104120187234361 127 127 127 1.3354807347971929 89 213 100 147 94 302 99 238
5723 -0.16348083864597893 1.3107243341550783 2.6206674574595392 41 36 32 1.3053271102473269 40 319 42 347 43 236 45 247 44 247
4614 0.69874292834544505 0.85876698700109921 3.1097802282767106 33 30 32 1.392067688419844 74 177 20 243 19 186 73 154 21 179 23 244 26 364 27 502 25 262 28 746 29 692 26 363 28 404
3907 -0.35976492664903797 1.0343293345569018 3.4659700445233841 108 89 85 0.42639132696206783 25 544 27 601 28 650 29 393
8994 0.41854981687578574 0.24679643880090146 4.4740220218566735 55 14 10 1.4977226838238251 63 540 62 721 60 457 59 256 54 322
6264 0.34978631337480987 1.5639402964413369 2.5839365354126822 31 31 31 1.2056434963918305 11 477 10 635 15 697 9 372 12 545
5192 1.1408961669868933 -0.17198009566379385 4.9904057581912262 57 43 38 0.049843096160854534 34 545 36 345
6301 0.68517316490799829 1.5073883748865626 3.1347345025332776 34 47 17 1.7156679919602831 71 145 70 149 69 109 67 117 66 178 65 112 61 234 62 153
3376 -0.18792365159948479 0.36823037583100154 1.8346194925546502 126 126 126 0.78199723341653993 91 524 96 521 92 197 95 188
8463 3.8161365847118605 1.056848873508174 3.7655334598866075 37 15 12 0.90634179225708755 98 186 97 217
5733 0.21186195141425507 0.32847390712715341 4.4278142101617952 53 9 5 0.27539996074499645 41 577 42 439 43 594
4624 -0.1967077241903962 1.1412900834044803 2.6200600255368691 130 127 120 1.0525227308811165 29 47 30 20 31 26 32 22 33 17 34 20 36 22
9711 1.0463176705369652 -0.23631334008607865 5.0189108611555726 55 42 37 0.3918695563337537 55 560 53 605 51 425 47 401
3917 0.79338530342983438 0.92982618980121812 3.03095025901793 127 127 127 0.070534699018666255 25 659 27 701 29 507
9004 -0.22655556109828354 0.85625811117375261 3.297597318847644 52 52 46 1.3732305589295843 62 19 61 25 60 34 59 37 58 50
6274 0.25705275069858119 1.7547722736236622 2.6957093693747143 11 11 8 1.4007303031159648 74 68 75 208 19 207 73 260 18 227 16 303 71 430 15 232 11 147 10 96 76 66 17 79 18 61 22 136 23 87 78 74 72 61 71 94 70 135 69 189 69 582 67 366 7 147 90 345 66 427
6531 0.908782183997769 0.72747885800022027 3.4567446163613718 58 57 51 0.76111695282276848 99 49 98 44 100 40 97 41
5198 0.73668758709071602 1.0495929798303336 3.2533363752162416 55 51 44 0.55096527893692637 34 181 36 419 31 75 37 667
6280 -0.40233373055945426 0.7683721459905255 2.1157747305769559 18 14 14 0.75170572563800575 15 270 14 153 11 204 10 193 74 582 75 608 19 571 17 250 18 313 16 174 71 383 72 555 70 407 69 386 67 459 9 117 12 133 7 128 8 125 6 135 4 116 5 133 3 187 90 170 79 184 68 207 57 178 46 182 35 250 24 276 13 440 2 485 1 423 66 446 65 553 64 620 63 728
5482 -0.11033778437394136 1.2498253135312667 2.7545209683625629 71 67 52 1.8262269090000989 38 636 39 536 40 655 41 368 42 451 43 424 45 473
4373 -0.38855567651125805 0.55223397531309792 1.9333685465328745 23 21 22 2.0023581279317288 16 293 15 319 14 295 11 290 10 286 67 662 9 174 7 237 8 285 6 519 12 587 4 153 5 195 12 163 11 543
3666 0.33103342176433187 1.7244510249447429 2.5884829257061837 56 55 51 1.6547175214727552 75 765 26 686 25 486
8753 0.42805894232645164 1.1718358611366317 3.0523319066166272 56 54 43 1.892820463209014 75 176 74 209 20 248 19 334 73 255 17 262 21 339 23 399 25 424 78 350 72 249 76 215 28 717 71 268 69 238 70 259 66 490 64 535 65 494 67 262 66 260
6023 -0.3162800374462183 0.9014290373525099 3.1767149011590128 13 4 9 2.0957169809010336 14 162 10 256 12 380
4914 0.84325280146718173 1.4525157025151034 3.0257093089308507 255 255 255 0.43905055335822968 31 498 32 669 33 724
5205 0.48226071588598968 -0.057138004155900111 5.2443634636907079 83 74 67 1.8694198797937354 34 441 36 450 37 455 39 466 40 434 41 486
3105 1.0083556409711427 0.53363485868559424 4.2419649155866859 37 34 35 1.3252506064454979 93 291 94 290 96 348 91 646 92 458 95 306 99 306 98 116 97 247
8192 0.19897610530135246 2.1046314875471608 3.0078472788776431 86 85 80 2.5089788545403531 20 459 74 215 19 480 80 764 77 800 25 201 16 572 15 713 14 679 69 432 69 434 67 477 12 219 8 222
5462 -0.16786786590287797 1.2375327790857953 2.7038713831460139 92 88 71 1.5921331052123375 34 678 39 345 40 629 42 528
4353 -0.4526482033714434 0.81908636391627776 3.5279935331269332 255 255 255 0.76856560100250282 16 112 15 184 69 211 67 156
4187 0.37624550557061759 2.0140520688626871 3.0346789612359193 6 5 4 1.1612275335458977 16 316 70 209
6544 0.38721940518286435 1.3513514338495189 2.3846995429450923 47 52 47 0.71022896959119042 99 201 98 205 97 211
3078 0.64219774190470513 1.738326499052713 3.4628989617517965 255 255 255 0.094384380073158025 93 40 94 32
8165 -0.026118607471941571 0.33021404995725634 2.031596276338135 255 255 255 0.067357343941394587 35 421 24 594
5435 -0.26749810922887757 0.58095911100162956 3.8564727368482923 255 255 255 0.87739528587912941 38 26 39 32 40 40 41 23 42 36 43 41 44 48 45 56
6030 1.0135429895625949 1.1999682229982607 3.7035000956163415 0 0 0 1.4304962697104056 15 180 16 114
4921 -0.12037094428336924 1.2064439066178441 2.8488387507365029 64 61 47 0.32173002215087027 31 477 32 715 36 397
10008 -0.35500706370382074 1.4479651477796818 3.1682409474654469 255 255 255 0.54893444700143357 51 775 50 304 48 302 47 307
5232 0.7368665794625755 1.5523758761751338 3.0131968112121812 2 2 0 1.4475850108528865 33 494 36 645 38 663 40 694 41 423 44 429
3416 0.66601407474440821 0.42771063154887257 3.5435239274492232 0 0 0 2.5334816825223863 84 443 87 519
8503 -0.18648519197454511 0.54845081339955859 1.9276261044198435 36 42 36 0.31198727668793247 66 122 65 109
5773 -0.40062408441717995 0.38656647828003876 1.9050664073949393 136 137 136 1.9042668930878808 38 161 39 161 41 162 42 172 40 274 38 504 41 477 43 279 44 264 37 474 45 280 37 539
4664 -0.2674615208702113 0.022891290796690261 1.5112262211760845 255 255 255 1.4252482002576234 28 252 30 300 36 151
9751 0.508968394449546 -0.18898578052916726 5.4931084370166516 140 140 140 2.0052386294021587 53 107 52 114 51 82 50 76 48 240 47 165
3109 0.86987230706678864 0.95169197460016897 3.1657743512055587 63 63 62 0.6872016247994932 89 327 94 317 91 277 92 477
8196 0.48143759806262826 0.3696407906840567 4.8954197331759426 0 0 0 1.6919346361694485 3 5 5 3 90 5
5466 0.50255771691046469 0.2894975508317163 4.1040861374289346 51 48 40 1.0377632374478591 38 219 39 375 40 636 41 668 42 374
4191 -0.59100428072683275 1.4873801785494842 3.1518622581486175 255 255 255 1.2202088923918171 17 302 18 356 16 406 15 117 14 95 11 66
6548 0.79979568938770973 1.4506539513568648 3.5423673199861549 35 32 29 1.5818455687323514 92 489 98 258 100 539
3082 0.47635658949953452 0.16960591681007064 3.3080108757216324 29 34 30 1.3669477384158397 86 177 93 107 94 81 91 68 95 90 100 198 96 245
8169 -0.34140086819805093 1.6399914167731928 3.2852025745456972 16 13 10 1.3160126139687294 35 485 24 621 13 412 2 165 35 58
5439 0.28399063470323282 0.73208901897485057 2.8369314740057696 89 95 88 1.5229386264511686 37 66 39 99 40 81 41 58 42 46 44 54 45 51
3677 -0.41888725065331328 0.83461608109120511 3.2423068216206272 255 255 255 1.4139501570235897 23 561 25 580 26 581 27 635 32 595
8764 -0.072000225882101532 1.1389095006005683 3.1557633523537256 111 100 94 0.75026063765606765 64 64 63 74 62 69 61 72 60 135 59 133 58 152 56 124 55 226 54 254 53 246 52 225 51 349
6034 -0.36903511409519402 0.86742766172082086 3.9122961128303846 26 25 25 2.0215049227377362 15 86 14 268 11 92
4925 0.31012925718460715 1.2505906622942862 2.8846299550909333 46 49 45 0.74710445594581698 28 658 32 744 33 676
10012 0.49205199424507867 0.3449418155067962 4.2777150696789592 39 30 35 0.62071984919813439 51 654 50 360 48 411 47 276
5211 0.2591325233808725 0.23585866377258455 4.2677178364045254 53 9 5 1.5274803831702091 34 538 36 487 37 471 38 456 39 352 40 569 41 383 44 554 43 410 45 680
6293 0.95789686684895725 0.54145078166426952 3.363014127909302 255 255 255 1.5243064229279815 72 107 73 384 70 27 69 21 67 16
3422 -0.19028257449893352 -0.094059257355212464 1.4848721333750354 208 208 208 2.0313406722854399 77 799 76 406 74 158 20 552 73 438 74 547 88 477 94 596 91 508 85 607 87 660 25 569 72 216
8509 0.27025694231636577 1.3395236294882742 2.6248323912234954 56 51 42 1.2161652017046267 67 315 66 157 65 193
5779 -0.53131166694776499 1.4530447976904519 3.0272984598616199 73 77 69 1.3029414110211908 38 229 39 239 37 352 40 472 42 375 40 543 41 379 43 368 44 381 45 426
5215 0.60517985889833548 0.4438169295116583 4.0642650196342425 12 3 1 0.27451332909461262 34 578 36 501 37 392 39 336
3967 1.0774754456471456 0.41109087757291729 4.1276631094964493 0 0 0 1.9984656153536391 84 664 87 742 89 727 93 222
9054 -0.29369162528093201 1.2910311102768979 3.2512937175608538 11 8 4 0.84290402139834342 62 710 61 378 60 433 59 456 58 425 56 562 55 476 54 695
6324 -0.41096178583152287 0.84576053098268622 3.4570631045647966 28 28 23 0.23599824158994465 15 578 70 491
3940 -0.23979786324947025 1.3670366580840634 2.4953968625237986 42 40 31 1.8941361758598592 23 608 78 739 25 626 26 614 27 682 77 724 27 819
9027 -0.060668605108850082 0.55040616680933208 4.3616834691846842 0 0 0 0.060903495671259231 62 398 63 595
6297 0.54342894620343341 1.0905253704531357 3.2324656224304631 44 43 39 1.2049966076150491 71 76 70 110 67 192 69 158 66 247
5499 1.0414733848336526 0.26766329218456952 4.6783450317585888 255 255 255 1.8070173741963513 38 49 40 64 42 220 45 303
6040 -0.41307104645017628 0.80409232775522677 2.1546840063899571 17 14 13 0.26539708020726965 16 583 14 406 69 557
4931 0.43020393164204984 1.8532117814763631 2.7875670037304356 49 47 44 0.94505415495439937 27 517 28 756 29 737 32 501 30 374 31 719 33 728 36 603
10018 1.2347892088883288 -0.24870929780507517 5.3388935006605953 46 38 32 0.97538760030575766 52 259 50 427 49 594
3402 -0.26469776713501453 0.55709007804428723 1.8559604317116967 153 153 153 1.7207786667243101 91 366 96 274 85 430 93 448 94 471 92 386 99 530
8489 0.45025718595006509 0.73818481280647807 2.8863956022948347 36 42 37 1.2200512501934075 67 18 66 23 65 26 64 33 63 79
5759 0.7109821484653619 1.4766809052425098 2.9512609297013039 15 16 11 1.3014248935221546 38 665 41 418 42 675 43 89 44 102 45 92
4650 0.29655415363895843 1.2497824021067343 2.7052963621209618 58 57 52 1.2178133617669178 28 370 29 370 30 197 31 302 32 292 36 307 38 425 39 428 40 606
9737 -0.066061733826173835 0.45903265116156261 4.2062857383672396 39 30 28 0.91051806955092263 59 224 55 273 63 349 62 275 61 146 65 445 59 222 54 278 58 362 60 378 56 404
3943 1.1777479310903698 1.5570845546792351 4.1692826593305199 255 255 255 2.2800241509094623 26 1 27 1 29 1 28 1 37 1
6300 0.13462139399051487 1.8536680074510232 2.8511154445912608 60 57 44 2.3580194804607024 18 136 70 132 67 299
3429 0.99459059777584924 -0.0066078155166006559 4.7992287842605794 255 255 255 0.82446961054775159 96 155 92 89 95 107 99 99
8516 -0.43269243524591255 1.2324067708524133 4.4801078000528092 0 0 0 3.3796860923323542 69 153 70 237
5786 0.90196992903109952 0.60694240950467349 3.3020756419082598 16 5 6 1.5520378783918978 42 24 43 30 44 70 45 90
4677 1.5502288053729536 0.81001556683709897 8.0939944210957506 34 29 23 0.52004916530495748 27 557 30 434
9764 1.4882893071024335 0.19901236693371935 4.782241111260225 24 10 8 2.1135188705449028 55 274 52 260 49 189
3948 -0.42465121573998899 1.2363607452125043 2.5020721088802245 0 0 0 0.17710121326307449 17 6 85 35
9035 -0.1421651111088118 1.3432523168973689 2.5010474846929864 60 56 50 0.19302781777510025 62 68 61 261 58 25
6305 -0.26519090104859255 0.19667598350049931 2.253021565214544 255 255 255 1.0462296358165588 71 53 70 201
3426 0.5530492095301548 1.0577292165077461 3.0185887615873979 55 54 49 1.5869327272968303 96 54 92 52 95 47 98 34 100 57
5783 -0.37625480625992874 1.5431826714651922 2.5723243923216437 48 45 39 2.3666136694534621 84 761 85 650 92 576 77 383 33 544
4674 0.6390920081611462 0.56635822203777975 4.1374547583195174 17 2 1 1.0171319441024027 28 593 30 411 32 517 36 323 38 332
9761 0.1143967527297455 0.65425220408703533 4.4761794733076083 85 64 56 1.6720629394413593 54 185 52 244
4973 0.76361026513519614 1.2404838639227247 3.229330154396302 22 17 5 0.54110519976100468 32 299 33 294 36 633
10060 -0.17025784933539659 0.46761234938895996 1.9713179483685999 31 35 30 0.40233507134192215 52 526 50 781
3725 -0.38054759307474972 1.06831477787965 3.4080245672166822 92 73 73 1.0732535692410943 23 114 26 83 27 123 28 134 30 86 31 91 33 156
8812 0.7081732100647764 1.4118791183151984 3.1363615129350566 6 3 6 0.30779633497344594 64 384 63 365
6082 0.79018497048724257 0.55265681323847848 3.1783651464397975 14 7 6 1.8083595898356024 15 27 16 22 78 42 18 74 14 52
4239 -0.37345384010227445 1.683519852195452 2.7091681967644425 58 55 50 1.6776808548692572 17 434 18 744 72 668 16 312 74 314 20 723 19 399 73 257 18 323 72 345 71 441 9 132 8 142 5 213 3 207 90 135 79 141 68 250 12 645
6596 -0.48301526461191052 1.411070217174804 2.7512588708257146 59 53 47 1.4004068873700395 11 31 9 27
5000 0.23417037950541353 1.3998830456275739 2.7726378386072215 59 58 52 0.85449166523891484 31 206 33 477 36 380 37 447
3752 0.80840718789774546 1.5403317189891188 2.9452394288157251 9 10 11 1.5121252510846404 25 750 26 266 27 305 30 135 31 143 32 128
8839 0.32686264837829054 0.11180631819158114 3.955055515794998 64 50 43 1.2779427919932018 64 566 63 538 62 566 59 355 58 288 61 473 56 305
6109 -0.34300606503606529 0.47417873106030795 2.9456000900614252 255 255 255 0.45848790108805404 15 134 11 167
5269 0.50885645096238419 1.1110312981383605 3.219411041586588 47 45 41 1.8265355632629219 33 329 34 325 36 591 37 195 38 310 39 649 39 204
4021 0.70185326570698991 1.6268842774351575 2.8889537239940641 0 0 0 0.26242285438301882 23 695 73 672
9108 -0.32872314156127119 0.7250007192468082 3.2474556014810423 36 28 29 0.78572650372577146 64 79 60 109 59 135 58 225 56 729 62 540 55 722
6378 0.44326887001977527 1.2751367111297158 2.8975265687714931 64 59 48 0.38770575548855701 70 330 69 317
6351 0.035748419183783894 2.041708243488829 3.0166276691780958 1 1 0 1.5425973160439541 10 36 69 31 67 57 9 60 12 72 7 79 3 87 66 56 63 150
5012 0.32951467920141053 1.225815644136351 3.0309062228934973 42 47 43 1.1892299854097499 30 497 31 349 32 339 33 539 28 354 34 327 38 447 37 646 40 587 39 647
10099 0.18586622395343866 -0.16209399352838777 4.8220135249209228 255 255 255 0.89144486632548592 52 194 49 280
3764 -0.12318569397583715 1.222889417964458 2.6392654075373856 44 38 38 0.30306446465133213 25 326 26 345 27 333 28 509
8851 0.81796031219923715 0.96912161887886727 3.1091974621096279 60 59 54 1.8310454338880979 69 346 63 602
6121 0.33862770900939732 0.91315773325905258 2.882744375087797 127 127 127 0.24043736042854835 14 408 11 304 10 445 67 343
3737 -0.19336101080580056 0.4930667158257494 1.8167294911984972 36 42 37 1.8954708413611416 20 97 26 161 80 133 27 245
8824 -0.42580977699659089 0.73980889005047079 3.2391996141931432 68 64 60 0.34723133393822997 64 327 63 443 62 620
6094 -0.24010608569828795 -0.084920011339109383 1.4540316935819015 33 39 47 2.2268400642698736 14 51 15 29 16 26 11 68 10 87 9 146 12 189 7 506
4014 0.58287650337935837 1.7512542584561566 2.7527627182398717 0 0 0 0.6881301130010824 17 601 73 691
9101 0.55818134677022835 0.51658271359048236 2.9195107383229382 61 69 60 1.160093153037967 61 34 62 28 60 29 59 30 58 29 56 45 55 77 54 73
6371 0.81966370460747462 0.8914324238735426 3.0439089234800223 30 30 28 0.65028500376106257 70 90 69 268 67 283
5262 0.40434613276060499 1.6283384333002497 2.6863439870167962 113 112 111 0.71383300254864457 36 265 37 168 34 705 38 118 39 188 40 121 41 117 42 128 43 128 44 136 45 131
3216 0.37686291780612124 1.4029326012720711 2.4795669196878705 31 31 28 1.0249106425362831 94 157 91 127
8303 -0.32495049538826465 0.73182003871632306 1.9736102483303826 61 56 51 0.63462905268014924 35 249 2 345
5573 1.1181687320320117 -0.3142970736764239 5.1976319796119617 125 123 117 1.8251520075916261 32 392 40 228 32 262 33 391 34 164 37 216 36 149 39 470
4464 1.2189260186515833 0.44228528724652344 4.3931169003311785 84 79 77 1.3794460178332226 95 246 99 242
9551 0.44378274872162421 -0.174809694645463 4.9720944377819398 52 25 21 0.97012740757767701 54 29 53 32 52 71 51 88 50 77 47 76
4017 -0.41560329975073995 1.2356911476486701 2.5611195957091812 60 55 50 1.5675885425418077 17 387 75 709 72 591 70 630
6374 -0.5524132331400482 1.4566519222282315 3.1187474556890642 255 255 255 1.5219443446841525 71 646 69 285 67 293 66 422 64 654 63 694 62 617 65 269
4024 0.69340408279197929 1.5059342152750064 2.9387108619800575 2 2 1 0.927186646558811 18 345 72 641 71 675 69 501
9111 -0.56107604641549769 1.5970160838717833 3.6008779601054699 117 110 105 0.60150485828052636 61 125 60 132 59 122 58 106 56 143 55 133 54 114 53 118 52 165 51 158 50 108 49 148 48 127 47 96
6381 -0.13472372355987586 0.42919157130280183 1.6682034565137154 88 94 87 0.94817013586280541 14 127 69 355
5186 0.68583202081140571 1.5059148915003771 2.9407990537765718 255 255 255 1.5223920349036835 34 288 36 271 37 633 38 443 39 393 40 344 41 637 43 462 44 427
10273 -0.1812300262962232 0.57137221288605611 1.8566289605936948 23 23 23 0.5532418875953341 49 784 50 766 47 737
3911 -0.28233446085138281 0.4857175827528028 1.7333966406590999 249 249 249 0.72452363992536206 26 235 27 649 29 390 30 418 31 382
6268 0.35198351468003147 1.6110633561276662 2.5673513812919566 73 73 72 0.86832460861622318 15 497 10 669 69 621 67 695 9 395 12 370
3654 0.23750566717747112 0.082969421107749478 3.7202170164100541 28 29 24 1.5810772523978214 23 508 25 373 26 485
8741 0.7692649449241773 0.85278122471900597 3.0902195591020014 39 31 30 2.0144069348845544 71 192 70 187 64 274 15 221 14 119 10 117 67 235 69 214 66 406 65 234 64 367 62 585 63 597
6011 0.96485764668741791 0.7384811449790788 3.1932101281839125 255 255 255 1.8596504302289341 16 39 71 20 14 78 11 93 10 48 69 56 69 142
4902 0.20906222417705311 0.25002667445669219 4.3974770257878006 98 57 55 0.86528853866249444 32 586 33 394 34 236 36 441 37 617 38 505 39 457 40 516 41 490 42 434 43 588 44 359 45 269
9989 -0.29079458314406664 0.419269937313761 2.02524445716019 72 79 70 0.65485779493577478 52 331 50 160 49 520
3539 0.66090970062939902 1.1073636078926605 3.2440219086701894 22 17 5 1.8468018484689839 96 159 95 184 99 478 98 568 100 380 97 362
8626 -0.48625636063199945 1.8965407961684209 2.7904393697475598 26 25 20 0.44939807237634416 66 245 67 658 65 608 64 431 63 709 62 524
5896 -0.048238313452972338 0.58210587600494301 2.0041568872600819 50 46 44 0.43478641820951702 42 229 43 164 44 188 45 168
4054 0.31850311090807881 1.3877870543392168 3.3369987109061374 15 11 13 1.9028208479860247 27 44 28 36 29 32 32 49 31 50 33 40
9141 0.067294703206503839 1.4149564481963615 2.9843946189461228 89 95 88 0.07313188670468837 61 310 60 419
6411 0.20439830954329971 1.7920638714347885 2.8010664677638437 45 42 34 0.53432226312314546 70 586 69 584 67 432 66 426 65 267 64 258 63 294 62 281 61 389
5302 0.60470617144460581 -0.33961456242117039 5.1841435276253032 77 56 50 0.31979163381913317 36 479 37 461 38 630 39 448 40 395 41 492 42 448 43 529 44 629
3941 -0.24083805493656468 -0.0066980703162836152 1.5235443533458184 61 68 72 1.2204742215586457 75 738 77 594 76 603 20 349 23 391 80 312 82 553 83 590 86 639 88 587 25 527 27 288 26 178 75 182 74 276 17 285 22 184 93 862 94 598 28 299 15 639 29 302 30 298 31 393 11 530
9028 0.64083434381646598 0.99173768936255668 3.1416945406077201 6 5 2 1.4307672405035226 62 235 61 221 60 227
6298 0.89743197495580929 0.64055839822626448 3.134766484050465 49 30 27 1.6887851050714233 71 149 70 118 69 84 67 456 66 539
5059 0.22932698036812027 1.2863416680092934 2.4593374156225205 40 17 14 0.77019218872195083 33 20 34 43 36 40 37 51 38 62 39 69 40 88 42 65
3243 -0.090933389832697845 0.86276535177128444 2.4870166412970738 77 71 61 0.71222947678003168 94 613 91 373
8330 -0.46297005583206363 0.87680103499202966 2.3239395560446776 36 32 30 1.9169832174243817 68 213 24 398 2 386 10 77 9 79 12 82 7 54 8 79 6 68 8 537 7 553
5600 -0.13588740965904231 0.42182435592742162 3.7495463012180084 255 255 255 1.6719066969738117 40 106 41 170
3013 0.35744279600574697 1.7398966215276399 2.6478379968957046 51 50 46 0.45522486734095707 89 744 93 591 94 736
8100 -0.47887409107860407 1.426538215781384 2.7312731801639503 63 57 50 0.94964451403948102 46 40 24 67 2 84
5370 -0.2158757899707458 0.0016628762827912349 1.5404259459497187 11 14 17 0.91583733148224344 36 72 38 245 43 115 44 92
4122 0.83282254144722767 0.66152723638826016 3.4162838849162926 55 52 42 1.2399462083441923 25 579 28 599
6479 -0.29395833953789052 1.0632501587239735 3.4008987104585633 121 87 77 0.56593774721150436 11 452 67 361 65 328 66 366 64 329 63 456 60 349
4261 0.80037065594723544 0.60451237636140165 3.3146735653731105 44 40 39 1.6993662971403867 17 189 71 123 70 87
3554 0.42367196063572482 1.129531924326074 3.1077536397830254 74 69 53 0.15450380071130282 92 579 95 378 99 353 98 225 100 222
8641 0.072176785914691705 0.31982708706630397 2.73615598229516 62 72 64 1.6003360729887635 65 21 64 25 63 51 58 45 54 48 53 53 52 99 51 248
5911 -0.49239220654571808 0.97574440032308951 2.393472572547529 45 40 36 1.5829709052747034 42 277 43 572 44 373
4802 -0.56200503585735595 1.2606137580077428 3.1745764727103478 255 255 255 0.98377535253018067 29 621 30 420 31 711 32 249 33 243
9889 0.57795626583616355 0.33985112216195212 3.8196605254589855 17 3 11 0.69995110618531375 52 327 51 305 50 291
3856 -0.2531202665742685 1.0506469140170802 3.128212275811129 25 20 8 0.68145696319338334 34 227 36 134 37 247 38 225 39 238 41 227 33 160 42 151 45 197
8943 -0.0097437840146378345 0.46624135450109816 4.1361000143859119 73 26 23 0.6926148900375334 63 587 62 400 60 377 58 364 55 416 54 282 52 298 51 657 50 800 48 693
6213 -0.29938669937926377 0.95277689423396983 3.3754961155524081 76 71 59 0.82619289595683476 11 170 10 209 9 163 12 215 7 173 8 274 6 186 4 249
3599 0.42156384527914686 0.17425313096315928 3.8011068557206187 0 0 0 1.543720254533792 21 8 23 7 25 6
8686 -0.13082973513072735 1.021855683395019 3.2071603278407563 31 31 27 0.88919966831668273 65 615 64 332 63 448 62 344 61 408
5956 -0.31736989097519258 0.57265181776949525 3.2964060536351782 113 69 56 0.40087372494783774 42 55 44 71 45 53
3469 0.47797001527188326 0.2494620962237738 3.5154136033689758 255 255 255 1.5990914669241212 86 653 91 538 92 402 95 131 99 63 100 123
8556 0.11492611150001485 1.4013323631163808 2.5386983574414534 48 48 48 1.9996975660180538 11 343 9 255 66 668 69 366 67 404 12 160 10 423
5826 0.46853284782157395 0.23014805107657121 5.3522372578468485 163 163 160 0.59490132814108232 42 499 43 473
4717 0.66406840177339543 1.5650912722095496 3.3142456604200952 255 255 255 0.85974111149216381 30 100 31 79 32 48 33 45 34 36 36 26 37 37 38 21 39 23 40 17 41 15
9804 -0.16093783962147989 1.0502360890977447 2.3019197943847223 127 127 127 0.18646590650187045 53 470 52 525
4110 0.54449847370383331 1.4743950848313747 3.0887680724564799 22 19 16 0.34543263249206352 27 363 28 451 29 479 30 456 32 436 33 463
6467 -0.50903329860022828 0.97782970294317295 3.3602347972871272 255 255 255 1.4811323425644805 18 185 67 234
3001 0.24729381960376282 1.2499083638430706 3.0780137324737713 55 52 42 1.1113763412701507 89 317 93 553 94 764
8088 -0.51000582435385911 1.8486788960123834 2.9085278544508406 0 0 0 1.151921419499272 6 3 8 6
5358 -0.00055384473255065561 0.43701088698762719 3.22283653409536 89 95 88 1.0216923636804516 37 375 38 154 43 249 44 588
4249 -0.055032550660039856 0.12125807831630658 3.3359172589263135 255 255 255 1.7625061169958465 19 66 71 30
3029 0.7033098441502954 1.3274290369441932 3.0890166183839511 2 1 0 1.3281198321963912 87 608 88 710 93 709 94 536
8116 -0.20375631845261893 0.38914951316480789 2.0362270512943246 255 255 255 0.74785586920114466 35 408 24 189 13 443
5386 0.32240140943355478 0.38880210291280348 4.480423302458199 123 73 61 1.9329648868955793 37 536 38 348 41 508 40 580 42 417
6468 -0.29535824672775202 1.0147259621841145 3.4221169378801215 118 100 99 0.53097164202978586 11 384 67 241
3002 0.73546823377138049 1.6599340376975005 3.1645706846394024 96 88 83 0.93234292376164385 86 816 93 556
8089 0.52704901225902845 -0.058129988609384245 5.4897273265294055 53 54 51 0.69578296885500812 35 194 24 8
5359 -0.17132568653970831 0.35696878914864799 3.1841766164683141 47 6 3 1.6028170201749814 37 124 38 163 39 70 40 107 41 172 39 465 42 180 44 125 45 187
4250 -0.31110585135682389 0.81148379390863634 2.0221328880569107 60 55 51 1.4975837577169118 16 41 71 33 70 33 69 29 67 26 66 38 64 36 63 68
3987 -0.40264868453798541 1.760909281016714 2.7546871218934283 3 4 2 0.71794160276725361 74 389 72 296
9074 -0.2622903745426079 0.57737423701390611 2.9592477281788758 87 92 85 1.1349972872298857 63 533 61 515
6344 -0.23011894846233025 0.37218064953729746 1.8302544532960627 18 21 18 2.0753178215756996 17 239 70 186 74 235 73 217
5235 -0.29967656649515889 0.72330973412379052 2.314159037232586 51 49 45 1.5776622769173072 31 121 36 128 34 74 36 65 37 165 42 191 43 106
3868 -0.15021272733796043 0.46728655770487215 2.9762963393253541 89 95 88 0.93787025997826967 26 192 27 300 28 445 29 440 31 706
8955 -0.33790333331245742 1.5253458095927577 3.1652301257368061 51 48 41 0.51487456346778282 63 380 62 459 61 424 60 273 59 429 58 299 56 501 58 636 55 342
6225 1.1918042241386286 0.53808987263666785 4.402259076928476 0 0 0 0.6653049013928376 16 178 18 529
5270 0.88363509525234529 0.83933268818374707 3.667768790830968 57 53 44 1.6119661114944657 36 185 37 196 39 316 40 291 42 637 43 636
6352 -0.53955928566862565 1.2860869683985954 2.7191374790840719 18 17 15 1.3318820305618657 17 75 72 54 67 105 18 29
3040 1.1337141151075751 0.81453612105628226 4.1653713678729627 30 8 11 2.1206895218825514 87 797 93 825 94 554 96 581
8127 -0.24568528567318529 0.47966527367390344 2.128406416771953 24 23 22 0.46280623555579237 35 248 24 272 2 224 13 441
5397 0.77094497825748332 1.4894058733179372 3.0127908130002865 6 6 2 2.1668613675078827 36 390 38 399 40 697 41 184 42 678 41 633 43 714 44 650 45 721
4379 -0.040257961808388032 1.3301123109122754 2.3654382792708284 0 0 0 0.40037234975447755 16 242 75 648
6736 -0.31692890088009285 1.1297717267540404 3.2932179414224709 112 68 59 1.7740677053989018 9 576 11 708 12 383 8 735 5 244 57 210
4518 0.88086840754530338 1.3487968276560112 3.9155108435589634 255 255 255 0.69657073456670093 93 562 99 279
9605 0.62831921492773823 0.20449755485000271 4.5829153982540785 62 44 42 1.7063832037935225 55 202 54 540 47 196
3041 1.4837012593470782 0.1028806867514136 5.2223895296882628 27 28 19 2.6870647945022399 88 739 93 826 91 685 92 684
8128 0.20113586498971625 0.18093995057512752 2.7937735863192854 0 0 0 0.8294227943959751 68 391 79 399
5398 0.78997727365622517 0.8255600211247125 3.5516682976089347 54 51 41 1.5231446106450761 37 650 38 406 39 645 42 210 43 192 41 196 45 215
6507 0.38153993552001142 1.4497035886885137 2.5628504791347209 60 57 44 1.668842417518166 69 447 66 685
4289 -0.44239734216882304 0.41046790064081046 2.8431517058920135 255 255 255 0.052992850357936411 16 761 71 411
4123 -0.16926051884070512 0.60618161604694731 2.1161802693469403 163 163 163 2.3588909623247729 23 563 28 600
6480 -0.39928703473423227 0.55203012820108366 1.9869043726602491 52 49 38 1.2948648590484944 69 410 67 363 64 698
3014 0.13542374763758105 1.9104145681212192 2.9316625034032637 58 55 52 2.311002658043543 89 869 93 596
8101 -0.049981368865748513 0.32024934291173107 4.5221215148361429 79 79 74 0.60544550922241347 46 71 24 68
5371 -0.034173818347210012 0.5216885233050631 3.9721557980550868 85 55 50 0.63792120404901276 37 169 38 249 39 260 40 174
4262 -0.26012520312671467 0.035637259798757377 1.5623707052774174 42 47 50 0.99359769528773889 20 104 71 125 16 280
4126 1.0936072985153775 0.97900749452161828 4.06667580163833 28 24 17 0.1951081930176001 26 561 28 624
6483 -0.24589341044700808 0.10277564185476339 1.5591913789898433 36 42 37 1.8424340918848487 69 377 67 392 66 571
4265 0.71532678658757509 0.30863677872582546 3.1872706555360368 255 255 255 2.2183813927078124 20 53 71 180
3176 0.63040356088598226 1.8277520382603689 3.0801124386972578 115 107 100 0.15190012353374893 87 518 94 769
8263 -0.23334429484080083 1.5294850418112811 3.1508085645822699 6 5 4 0.91853214969461394 24 546 13 627 2 595
5533 0.019432778413075402 0.74397627502973895 3.3100823837853572 8 12 15 1.5877082697562237 39 234 40 465 41 247
6615 0.42005558879969412 1.3004203452213756 2.3492055188771861 24 24 24 0.63831935954486452 10 171 9 156 12 174 7 255 8 305 6 126 4 158 5 171 3 170 90 186 79 93 68 292
5024 0.32557420171486223 0.26717621633492017 4.4545644860562073 105 60 53 1.0616075019224533 32 120 33 601 34 162 33 271 36 242 37 269 38 156 39 167 41 145 42 161 43 237 44 164 45 222
10111 -0.12704311528646661 1.243518463082034 2.698417552822526 34 33 27 1.2701881566114286 50 466 51 723 49 464 48 482 47 343
4429 -0.16185639834001644 1.2405228159867274 2.4585179153507846 36 32 29 2.4296932770370119 17 550 18 659 16 649 15 596 74 655 84 805 87 893 74 475 76 259 21 380 85 599 72 488 18 482
6529 1.5109011706934046 -0.081965124755439031 4.8392245288870264 0 0 0 1.567738327332183 94 65 99 41
5037 -0.099487186840059472 1.2478079239549058 2.5185767254831597 63 59 53 1.0993295070271689 32 335 33 682 34 317 36 227 31 348
10124 0.91261576760039331 -0.33285365294996033 5.4125071502334858 37 32 29 0.028863430370827649 55 102 49 577
6660 -0.37465267221058252 1.5606701474271392 2.6267174069302408 63 59 56 0.41233994555837861 10 391 9 611 7 637 90 666
4442 0.34207172056199353 0.60911003402902286 2.8154639811598337 36 42 37 0.94265192703729983 94 10 95 19 99 20 98 18 100 22 97 22
6719 0.24416396035435259 1.938840084904724 2.8503625191935544 55 53 51 0.92025622458908318 10 133 12 214 7 212 4 301 5 314 3 285
3307 0.23581998944761168 1.5636769984190815 2.8031533251017478 31 9 5 2.1622006947596244 91 32 96 58 92 191 95 60 99 232 98 272 100 456
5664 -0.31904968141102064 0.54291704515688111 2.1112968116010467 32 37 33 0.6031445194567544 36 52 41 596
4555 -0.11216584911013985 1.9073873518835183 2.9001052587971619 12 11 9 1.8795554958791056 28 223 29 331 32 90 33 762
9642 0.17334608599690624 0.26444311823197875 4.4197226401574685 90 50 47 0.86130394232810481 64 379 62 547 60 358 59 365 58 385 56 426 55 268 63 557 52 401 51 537 50 270 49 503 48 326
3848 0.96040063204580461 0.82442308387156304 3.6046089352954049 25 5 8 0.17263592757947804 26 82 27 125
8935 0.078195166204520286 0.22496346162805053 3.5860341715329205 59 55 51 1.6568312831792951 63 527 65 440 62 374 60 603
6205 -0.21138682999644973 0.78320219715760553 3.178141380891081 17 17 14 0.4808408880574036 11 174 10 158 5 624
3591 1.1933277968081166 0.86859919315826783 4.3995779975318063 30 28 26 1.8907123656396629 92 652 93 820 87 762 94 453 91 332 85 558 86 541 96 663 95 635 99 607 94 452 100 522
8678 0.257059431376854 0.14712719257073847 3.7996762933025967 121 75 69 0.38710052107406456 65 237 64 261 63 187 62 200 61 250 60 175 59 115 58 89 56 421 54 178 53 186 52 198 51 189 50 170 49 180 48 161 47 175
5948 -0.35941962516559633 0.38426967260246986 1.8929479744767834 182 182 182 2.0541075121953778 44 487 39 162 41 109 43 173 40 159 42 78 45 74
4839 0.65362285931313169 0.84262614749769149 3.0506915560198715 38 34 35 1.3971506638901598 31 223 32 188 33 225 34 637 36 597 37 640
9926 1.411462884179804 -0.2092704662936504 5.0993120153886018 69 54 50 0.32788063650234994 53 563 51 580 50 804 49 516 48 553 47 556
4313 0.22657004733620861 1.5221271059771753 2.5977677715187979 53 52 50 0.9522091803958157 19 199 71 601
6670 -0.3234427389706126 1.1745569139487717 3.3299752635095441 60 56 47 1.7196791446144364 11 656 9 694 12 564 4 168 65 576
4452 0.29789196192056511 1.0567595018691862 2.9033644726811607 25 24 20 0.39026919231629487 92 261 99 166 98 164
3542 0.4108881302364264 1.608364040047187 2.9035553544160373 0 0 0 0.46363840335963025 92 341 93 213
8629 0.29586958513746681 1.8946234284757062 2.7713802734865887 28 28 27 2.309622265508458 66 17 67 11 17 2 18 4 65 33 64 34 60 42
5899 -0.521236264201553 1.5977895021844657 2.978444069836188 68 67 57 1.2451777998584426 43 187 45 290
4790 1.1591650042228669 0.48546304026857029 4.6379347337480983 32 33 33 0.22596184924859228 30 619 31 581 32 508 34 551 37 515 44 700
4993 -0.31207833232971616 0.39236770470251436 1.9961113208915573 254 254 254 1.0742716312917879 31 572 32 530 33 436
5534 -0.10767500014253537 1.0954019001539359 2.9112934757866085 36 7 7 1.622945804141122 39 497 40 483 42 426
4425 0.13877660041884193 1.858876755854552 2.8152678087265945 10 11 6 1.8401485652545642 73 656 18 737 21 447 20 666 23 689 72 621 15 471 75 405 77 777 76 701 19 276 17 447 18 695 78 581 81 594 82 460 83 817 87 890 71 650 14 432
4259 0.43099935508274118 1.5139653330206608 2.8795186919237343 9 2 4 1.7906563912993241 18 101 71 103 72 34
6616 -0.15539191657261242 1.2190171789595292 2.4616377132933125 31 27 24 0.54087171558882874 69 338 9 161
6370 0.79569829028264516 0.85781662231088418 3.0637296591444558 46 41 42 1.9503823781013485 70 429 69 267 67 463 16 218
5001 0.72026979589350537 1.5711081695960782 2.9200132139430734 252 252 251 1.4395852732619256 32 664 33 478 34 286 36 276 37 309 38 285 39 396 40 342 41 634 40 741
3496 0.72082277306651699 1.4197462910377183 3.0909684060549942 4 3 1 1.5134532292221767 87 581 92 627 95 453
8583 -0.57183303258313101 1.4537949049871246 3.2065948983643855 3 3 3 0.92821790434724338 66 311 67 231 65 127 64 138 63 96 62 136 61 279 60 269 59 286 58 312
5853 1.1465501231632815 0.62744710092554112 5.1500434418348684 161 161 155 1.4591330618193854 42 159 43 680 44 633 45 734
3945 0.88623435776685933 1.0493925485592326 3.2600446349931937 30 30 35 1.0636583073691408 23 550 28 513
9032 0.3604481116166291 0.13541460167706934 3.6485485999731289 56 13 8 1.1683665108917596 62 423 61 245 59 358 54 563
6302 0.47289304192489934 1.1360554522611219 3.1813926653508302 42 42 37 1.7640309076293117 15 571 70 162 69 230 16 453
5788 -0.12197693984289748 0.45700645039922172 1.9656425673650222 29 34 30 0.48379781734880412 41 81 43 77 44 193 42 97
6683 0.039166290702062477 1.782408746287707 2.7622252226580448 72 69 61 0.95671553439981438 16 748 15 717 11 585 9 423 75 393 76 711 20 479 16 384 71 435 15 476 69 595 10 465 66 634
4465 0.47364032496388098 0.14645531719597457 3.2584620394058583 28 34 30 1.5782991843847938 86 333 92 254 100 163 99 248 96 186
9552 -0.48857345458328738 1.4455590782544312 2.8777475306362845 41 38 34 1.099974773721335 55 49 54 43 53 46 52 45
3812 0.44781472113188142 1.52159878906247 2.5048134058038944 35 41 37 0.695142457456561 23 378 25 400 26 666 27 547 28 335 29 342 30 472
6169 -0.3646339994688178 1.2647742596999327 2.4246332831633013 18 11 10 0.87853468095339349 15 647 11 657 9 363 12 597 7 597 6 634 4 520 8 265 5 629 3 543 79 581
3555 1.0063633207258027 1.1683001262535386 4.0329150446512818 56 54 50 0.42169450116008245 91 294 95 389 98 368 100 262 97 320
8642 0.28707815088629618 0.06386421856539741 3.3250054166975418 38 13 13 0.4179854251303794 64 43 63 38
5912 -0.31247220042314394 0.41869862448694839 2.074184879932667 24 22 24 1.7868828444707396 37 371 44 374 39 261
3310 0.28516642470011705 1.2580980253022991 2.7631381630061602 61 61 55 2.0507508526156415 87 69 92 76 95 73 99 68 98 65 100 41 97 56
8397 0.83303908181276909 0.72691879625982569 3.3583968317154245 31 31 31 2.6954300522390842 94 90 100 95 97 146
5667 0.60606057669070457 0.47763197663341117 2.8324907803537664 61 69 59 0.84964502722951862 39 305 41 651 42 367 39 138
4558 0.33699024915057679 1.395841216769564 2.880221730868644 77 69 67 1.1389460536569749 28 212 29 374 30 326 31 308 32 287 33 349 34 274 36 177 37 285 38 260 39 315 40 286 41 345 42 366 43 360 44 335 45 350
9645 0.52289313483435729 -0.49275365730529486 5.296772473324789 255 255 255 0.81647336125646741 55 175 56 192 54 144 53 248
4531 -0.26600797853054708 1.3432975183097198 2.4682426328443285 64 59 54 1.6198065572775089 26 122 28 116 29 130 30 145 33 211 34 186 36 403 37 595 38 607
9618 0.5117435987737029 1.2250841321971961 3.1289763461829292 5 5 2 1.3072207106680904 55 421 54 629 53 641 51 626 50 533
