# 3D point list with one line of data per point:
#   POINT3D_ID, X, Y, Z, R, G, B, ERROR, TRACK[] as (IMAGE_ID, POINT2D_IDX)
# Number of points: 288, mean track length: 9.0601265822784818
4683 1.3144841579599233 0.27909286317920406 3.4249503517443545 28 28 30 1.3737458304608883 56 328 62 343 58 506 13 302 29 299 26 183 27 293 33 396 35 266 30 389 28 200 25 190 91 266 20 177 21 304 19 289 73 318 76 265 76 459 74 273 17 292 77 290 22 173 81 298 83 105 26 43 84 294 85 235 87 245 94 226
2867 2.1291233394122839 -0.60253893642358769 3.0063892761498541 27 30 38 1.332854063338162 14 357 10 296 6 356 13 178 15 239
1785 1.4693306438597407 0.44943548758206148 2.9916056858904341 52 55 57 1.5232949390157713 27 395 28 189 24 181 22 149 31 383 30 394 20 226 73 113 73 224 19 228 76 241 18 88 71 240 71 241 17 107 17 303 77 107 72 193 69 411 66 427 67 459 16 236 15 268 65 469 14 221 14 380 13 261
4142 3.1766110882261414 -1.1428874921291756 3.0590756376962616 46 44 42 0.26229046650328669 51 286 49 245 47 364 45 331
2330 2.4230213047823725 0.14362367003317478 2.9011628389431503 47 52 58 0.39557330364997539 69 32 70 26 67 39
4687 2.1209137262563762 -0.50235655338257779 2.8832673117477796 49 57 65 1.302408329960427 19 398 21 363 76 394 30 331 27 381 22 160 24 137 25 166 91 178 20 115 73 167 21 431 19 400 76 393 18 148 71 386 74 239 71 167 77 211 79 311 28 330 72 160 72 363 70 174 70 378 69 195 66 168 66 466 67 183 16 394 16 395 15 184 15 369 9 174 65 392 56 242 62 264 58 351 14 371 10 393 6 413 11 296 7 321 57 262 2 254 60 245 63 263 64 355 55 248 59 351 53 295 54 257 52 245 50 330 51 474 49 325 47 242 45 216 89 130 46 384 48 443 33 411 36 303 35 348 32 132 31 300 30 148 30 325 29 257 29 389 26 141 26 353 27 382 28 156 28 328 25 367 21 367 73 372 18 346 70 465 15 368 80 172 81 242 83 237 82 302 84 221 85 334 44 422 41 406 39 367 38 361
2331 2.4672547972026808 -0.17297730372564754 2.1273968641142362 255 255 255 1.385789724950645 69 25 67 43 62 33 58 47 57 60
4688 1.872601774405962 -0.1275716751681501 2.8690728758726931 75 81 86 1.6320620104436547 72 322 66 355 21 350 73 291 19 242 76 307 18 75 19 51 17 67 66 99 69 383 16 169 15 160 65 54 56 47 62 40 58 34 6 174 11 121 5 134 63 51 64 53 55 79 53 88 54 113 52 167 50 297 13 162 42 299 3 231
681 2.3918277169321787 0.46445562896318737 3.7583243569752449 255 255 255 0.74672241789710436 37 5 48 6 36 4 41 5 38 4
3038 1.8934261165617559 0.059377617403416759 2.6208533837372472 40 63 72 0.34035035779117617 6 296 11 394
1790 1.811792906088751 -0.081621907290431381 2.9753432521598335 66 67 73 1.6656480640401787 20 251 21 289 19 386 73 423 21 324 76 183 18 380 18 382 76 385 71 111 71 249 74 351 17 245 72 277 72 415 70 183 70 368 66 253 16 115 15 172 9 120 65 263 56 255 62 316 14 83 10 78 8 74 6 80 11 47 4 55 7 54 67 173 5 42 2 54 57 480 63 456 60 331 60 468 64 509 64 510 55 332 55 584 59 533 89 59 13 99 78 58 68 29 61 41 42 49 34 58 23 54 12 48 3 50 1 44
2332 2.4432578212334111 -0.37955679407427806 2.3021263973392858 98 100 102 1.797896585220309 66 67 69 89 67 68 65 46 10 140 8 375 4 141 7 69 5 112 2 115 2 356 89 354 4 397 68 134 42 325 34 138 23 244 92 309 94 165 95 294 93 159 96 188
4689 2.0839603938339972 -0.32566045222110446 3.1294701717738245 39 47 51 1.4258598246247973 22 242 25 173 91 252 20 171 21 204 19 167 76 178 18 155 71 176 17 177 77 175 79 256 28 390 24 348 72 153 67 263 16 172 15 166 9 123 65 159 56 246 62 166 10 237 8 128 2 198 60 189 63 264 64 249 55 301 63 266 54 244 50 241 51 272 49 271 45 312 13 171 78 243 42 281 34 188 50 355 53 292 23 385 12 194 3 176 23 303 1 236
1791 2.5492681320780837 -0.090286871572905186 2.3261605794376332 12 17 29 1.086330248716709 24 263 22 183 25 305 20 243 21 166 19 389 91 235 73 352 76 341 18 310 71 367 74 111 74 328 17 325 77 196 79 250 72 242 70 321 66 349 67 209 65 415 56 324 62 415 80 230 83 201 82 241 86 117 88 169 85 347 87 168 92 94
4148 2.3267325563545795 -0.73191699573719815 3.0125412604860413 255 255 255 0.81892374532807244 50 254 49 313 47 305 45 455
2333 1.7663088240083549 0.59866335772724677 2.9378461297153242 106 109 107 0.94021403059834174 66 78 69 104 67 77
4690 1.8607403275534786 -0.21011745767395543 3.4790485751434121 13 14 15 2.1538570747599932 10 511 65 331 4 147 7 156 9 220 63 512 59 68 53 128 13 204 70 304 68 161 2 271 78 275
2340 2.7761152069446449 -1.1165191946863036 3.2460172439900381 109 104 103 0.63530363373408838 66 173 67 129 65 91 56 94 62 116 58 118 57 76 60 122 63 109 64 123 55 167 59 176
4697 2.4026273255333446 -0.65408000695526214 3.481762704193279 16 17 19 0.53131891351958327 34 22 23 29 12 40
1799 2.327409386053148 0.43244585634640115 2.7711696213630277 0 0 0 0.83053655722541064 21 33 25 111
4156 2.8555534669465819 -0.14108705751262882 2.9302475308319713 254 254 254 0.88143414707567336 50 436 49 360 47 121
2343 1.8127807959175777 -0.22364163154516778 3.0772467247995117 43 52 54 0.48371710589652445 66 232 67 161 65 265 56 299
1802 2.5858339223058366 0.41833152604887081 3.0731239216303385 255 255 255 1.752831608384291 25 50 73 130 77 88 70 63 15 115 65 131 72 261 82 106 83 51 84 106
4159 2.384200991005974 -0.048498286795985758 2.8453749508899526 69 76 81 1.1339275139786986 51 139 49 401
2344 2.9295736097626839 -0.79524424671387273 3.9809529821202845 0 0 0 1.2040383447788088 18 156 72 152
4701 1.4717155071276742 -0.034583976951108202 3.4582535199259796 9 12 7 0.43916133702729226 34 94 42 93 23 91 12 76 3 84 1 113
2348 2.4417485746898491 -0.59319235683925442 2.8429299544558417 93 111 117 0.99995900179647579 66 396 67 193 65 370
4705 2.6480305262455772 -0.56763529010198377 3.0824938579698093 17 24 27 0.27402403550330096 61 371 23 146 12 379 3 218 1 326
1807 1.2398447002327988 0.3815749753335036 2.3046866408319922 255 255 255 2.5458813697061169 91 249 76 181
4164 2.8366550112599938 -0.77323792700749083 2.8870064179611816 22 25 13 0.89413465820188898 51 465 49 443 47 152 45 108 45 423
2357 2.3104046671342275 -0.59780628216996612 2.7757879375533485 175 174 177 1.0661291478727979 66 390 67 288 62 386 58 296
1816 1.4659200840360969 -0.058110799079972755 3.017131277344359 46 54 62 1.1350423688494571 73 217 76 238 71 239 17 230 70 207 69 212 66 220 67 313 15 233 65 233 56 220 62 472 58 505 57 439 60 348 57 154 63 237 55 266 59 496
4173 3.173129753145373 -0.55121010898837197 3.117284392766551 42 34 32 1.2680276385555407 59 339 53 241 54 390 49 284 51 298 52 382 45 246
2359 2.2742850613934893 -0.17114645005522408 2.7028311360086126 22 28 32 1.008508150620586 17 259 69 283 67 295 16 334 57 380
2370 2.1201013503727455 -0.53494609423758677 2.8731300370170585 64 66 69 0.58670748451666321 70 379 67 377 65 395 62 489 14 373 8 340 57 476 13 338
4727 2.576460428079165 -0.51567509326180816 2.9593286617442844 53 53 53 0.64173451532349313 34 212 23 423 12 154 3 135 1 218
2374 2.7064515707250965 0.19358235489011874 2.6908741516701995 54 53 52 0.56566473378576332 65 355 67 350 56 314 62 214 57 148 60 164 55 120 50 90 52 396 47 63
4731 2.9232934486955306 -1.187523195327896 3.4156377365134407 45 41 37 2.0906210330239645 5 209 42 145 34 393 23 407 4 477 5 467 2 215 89 317 78 204 42 235 11 443 68 468 61 467
5707 2.4045258966693228 0.29073681921487793 3.3282945167814355 35 34 35 1.5276638235145241 95 46 93 73 98 49 100 42
2380 1.5937357193035147 0.48078457897172916 2.7830016618880271 12 24 37 1.2409919623876799 69 444 67 462 56 440 62 486 58 348 57 300 57 467 60 321 63 298 64 278 59 237 55 367 53 279 54 191 52 139 50 148 51 210
2384 1.4192286877547751 0.33096475968862266 2.8405928962867244 91 85 80 2.2175618126906897 18 394 66 430 67 487 9 356 21 392 14 95 15 67 8 357 11 120
4741 2.1413856773700291 -0.5685061102384813 3.3668965209246835 50 52 47 1.5709116832526664 56 456 62 458 14 218 9 306 8 176 10 450 6 231 11 460 7 228 13 327 23 183 89 418 34 255
2397 2.000287773276753 -0.19981179185328399 3.0556512796743318 15 17 23 0.7119401796492143 66 122 16 76 15 87 9 95 65 126 62 98 58 112 14 99 10 119 8 95 6 87 11 77 4 88 7 96 5 99 2 99 57 172 60 121 63 108 64 100 55 102 59 106 53 141 54 170 52 160 50 185 51 208 49 175 47 264 45 226 89 103 13 80 78 97 68 89 61 84 42 120 34 107 23 112 12 108 3 179 1 169
2408 2.1398345806323564 -0.25999292904172072 3.0213756238818315 43 47 53 0.54113857122832476 67 332 16 322 9 183 14 239 10 128 8 186 6 137 11 119 4 118 7 130 5 117 2 103 89 275 13 239 78 129 68 125 61 171 42 275
2417 1.0935513206097085 0.22570885610475866 3.447794662033675 254 254 254 1.7615947429282599 66 460 16 457 15 431 62 494 14 314 10 344 6 446 11 527 7 461
2419 2.1469453110274843 -0.27338520592919785 2.8969254836957075 16 14 17 2.0516991539664597 67 379 71 384 21 339 20 70 19 393 18 339 71 392 77 89 73 368 70 376 69 260 91 301 72 257 69 394 70 175 66 181 67 334 16 392 16 396 20 363 65 388 56 273 62 380 14 231 10 177 10 390 8 188 8 406 6 286 11 294 11 419 4 269 4 389 7 215 5 253 5 380 2 202 2 204 60 488 64 336 59 371 53 464 89 209 89 339 13 187 78 181 78 265 68 198 68 273 61 279
2987 1.508127466550349 0.50639258560821987 2.9362305127713175 103 106 109 1.6036534789826107 14 413 10 373 8 463 26 297 24 123 20 60 21 125 6 387 13 423 71 322
5717 1.6256197002557049 0.59284229334690375 2.9608300406155301 121 122 123 0.68593457736577834 92 49 95 242 93 191 86 52
630 2.5049082907172555 -0.23088525495225751 2.2675822426097429 100 104 109 1.7271553121077294 37 156 48 354 33 183 36 128 32 103 31 95 24 253 22 215 44 86 41 71 39 293 38 80
1878 2.4077019732762035 -0.74759057677971463 2.9346481458775782 93 90 100 1.8226295988022443 25 35 91 36 74 36 17 112 72 265 18 211 70 270 69 403 16 80 15 373 9 58 14 42 8 138 10 311 13 70 80 35 24 29
4235 1.7723039748519047 0.58694136143228592 3.0389927951626814 177 177 177 1.3237524637089406 47 418 49 344 45 354 50 303
660 2.0952139272607804 -0.39369089442292254 3.3002579894161466 89 94 100 1.1592525499508624 37 444 33 322 32 210 35 303 31 226 30 253 38 248
5747 2.8816922431508214 0.14704840551381701 3.2410323088608166 13 15 17 1.809137599703303 95 166 93 384 96 262
2420 2.0062621421120657 -0.40726351359707169 3.5078670312402211 64 64 64 2.0338352070035324 24 196 71 361 16 428 67 236 62 237 10 196 72 401
2988 1.6738442370694337 -0.027695481298096881 3.0553347470395642 17 19 25 0.62097357926582197 24 132 22 83 25 96 20 57 73 109 21 98 19 76 76 76 18 70 71 76 74 93 17 74 77 115 70 51 69 42 66 76 67 31 16 67 15 68 65 33 56 22 62 35 58 31 57 34 60 32 63 33 64 26 55 49 59 49 53 17 54 48 52 81 50 74 51 84 49 88 47 80 47 287 45 157
5345 1.4262059846758848 0.35329465666104815 2.6185576029882611 79 77 82 1.4331071602133969 88 15 87 12 92 11 75 19 94 11 95 18 93 16 90 32 96 101 98 74 97 67 99 70 100 25
1879 1.5210921652554958 0.54498658321450766 2.890361658899713 74 74 77 0.93451028912043377 20 62 18 68 71 74 77 47 69 100 67 277 15 80 16 88 9 78 56 254 14 150 10 125 8 125 6 180 11 397 13 66
2442 1.872368024823782 -0.24566132814376626 3.1587235974927208 96 101 107 0.93201746208885949 17 122 71 236 15 143 13 150 9 167
2983 1.2918359591955311 0.14138879411902247 2.8325391379487139 105 105 106 1.6890059868217226 69 292 66 285 67 446 10 117 8 274 16 20 14 38 6 197 6 378 11 185 11 406 4 316 7 297 13 21
1901 2.1605074239089332 -0.60364111284326027 3.142192938788444 65 66 68 1.5371096677055298 76 380 18 418 71 371 74 256 66 354 16 277 56 443 58 482 14 54 6 166 5 95 2 414 57 319 60 336 63 500 89 77 89 362
684 1.6147896663499028 0.61484774600296987 2.9264657339317632 116 120 119 2.1963296983223093 37 21 36 20 30 11 29 13 26 12 27 12 28 14 24 28 22 29 80 18 81 16 83 12 38 17
5771 1.8519381543383551 0.77366550890489072 3.3345966158690401 5 7 6 2.0302592632780478 93 126 96 103 90 85
2444 2.0193623459037608 0.3098964975945605 2.8306504361055262 254 254 254 2.1257495240149735 16 60 17 171 15 152
4801 2.8956709797348745 -0.57217221793405804 3.5279281961661155 255 255 255 0.45951173904111375 34 287 3 44
2449 1.5253065768726575 -0.11287611678702887 3.0164714173084528 0 0 0 2.517138543277377 16 159 66 155
1908 2.1906623039374051 0.13207313810197521 2.7831637069851944 51 65 76 1.9328028272176057 21 160 18 228 19 399 73 436 76 253 20 364 77 300
4265 2.5589080488861575 -0.61300812740997723 3.0232678863625462 60 62 66 1.5750841462084795 5 55 89 44
2451 1.2987912824675549 -0.097488294361503691 3.0974330548559479 172 173 173 0.94980591062910114 16 213 17 313 15 235 9 148 14 69 6 72 10 69 8 160 11 69 7 44 5 48 2 43 89 51 13 317 78 56
1910 1.9234024032087018 -0.28692712544486226 3.1882933541847649 10 10 10 1.1932472129536409 73 331 18 384 91 171 17 434 72 296 18 283 70 253 69 325 66 308 67 275 16 112 15 325 65 280 56 252 62 311 58 320 14 151 10 97 8 105 6 96 11 105 7 92 5 92 57 485 58 457 60 338 57 231 63 499 64 312 59 520 13 151 61 91 68 93 78 87 42 72 12 127 3 121 2 119 1 126
4267 3.1814091264484401 -0.80158063661057766 3.2462972268522661 94 90 88 0.66688541311204819 2 136 5 309 89 61 12 83
5525 3.0045870956769707 0.086102466523167068 3.3641403185506045 254 254 254 1.8504203215222095 86 216 87 143 75 287
2198 1.4340514496628405 -0.11028675446223568 3.0238162008747493 46 45 43 1.0966015622459271 17 464 70 308 66 454 15 196 65 455 56 422 58 502
4555 1.44415795092773 0.22579732664735236 2.7441698744543608 51 63 68 1.5135752275976837 61 4 7 2 42 4 4 4 34 4
2455 1.6611918117547795 0.75856483478153147 3.0085829408989935 34 37 38 0.78674601123303889 17 225 19 432 73 218 77 164 15 273 74 394 91 80 14 286 10 290 6 389 7 364 11 260
1914 1.319965778354087 0.15240998595069188 2.8047709861129291 55 55 64 2.2577750526771339 19 424 76 419 18 133 26 376 28 388 25 427 73 420 18 396 33 246 36 247 35 178 32 385 31 255 30 188 29 378 26 189 27 417 24 338 22 361 25 390 20 345 21 410 19 436 76 410 20 144 19 91 21 69 73 83 76 96 71 51 74 83 74 403 91 84 17 76 77 116 77 437 79 263 72 97 70 306 66 288 16 228 15 139 10 120 9 234 16 262 15 420 13 223 13 411 80 165
2457 1.2973830009098084 0.17341716482299505 3.2177651818441575 97 97 100 1.025758515407627 16 288 69 445 71 464 15 285 9 419 14 311 10 329 8 98 14 96 6 306 11 225 4 434 7 216 2 252 13 295
444 3.4326955462027824 -0.5709809648375298 3.2258808660754048 105 100 95 0.22850026274118643 40 135 43 207 46 173 44 97 41 141 39 207
5531 1.3102902416348154 -0.11597717449155852 3.0304741332531497 0 0 0 0.41866197765411689 82 97 86 99
2204 2.5450935332194855 -0.48050052609837729 2.8522995351290916 53 65 69 0.76239324278629872 72 336 70 331 69 277 66 338 67 223 15 257 16 335 65 189 56 194 62 297 58 207 57 188 60 150 63 310 64 208 55 439 59 292 53 202 52 367 50 469
4561 1.1250491678935308 0.24516169425812837 3.4523700389562557 27 24 23 1.3152752475966114 61 141 42 95 34 126 23 287 12 209
2461 1.4306971826962191 0.22368312661664269 2.7789169068273432 94 97 100 1.3334363200329502 16 369 15 335 13 363 9 361 8 385 14 331
2210 1.8369852925309573 -0.17985045064842012 2.5115573370076438 0 0 0 0.75492839660292543 71 390 72 163
4567 2.5324650003010682 -0.68085180563297942 3.5133870432493208 255 255 255 0.72741794604887478 78 197 42 140 34 286
2467 1.3750163994689397 0.28750869447498772 3.4076256655875419 65 65 65 0.67221823847693984 21 415 71 466 15 394 20 425 17 441
3035 1.4199487179227985 0.23827403192549376 2.7149279300960378 102 103 107 1.7894628394818641 10 304 6 289 11 178 4 339 7 211 5 126 57 166 63 168 60 469 64 187 64 346 52 375 53 397
1926 1.5246701325046039 0.56019394119291366 3.1762209958238916 51 52 52 1.1510906338757085 28 57 71 95 16 246 15 202 65 381 8 331
4283 1.8950951855000444 -0.11555299001324404 3.0196849566010773 63 66 71 0.35163169114468446 5 304 89 276 34 278
2918 1.9531759677351432 -0.26139153829104839 3.1681439767563235 97 103 107 0.31210323746864121 14 133 8 166
1836 1.376071686217694 0.29204823170784333 2.6577026210943777 84 82 86 0.71236897161739232 20 415 76 433 74 220 18 417 17 251 72 442
4193 2.8804320532649763 -0.74164306664073798 3.2176691600969045 255 255 255 0.34542918280995 49 241 47 245 45 301
520 3.5954579095105839 -0.60880702815099186 3.1217423829394693 254 254 254 1.4579381033907772 46 398 48 372 44 219 40 340 46 401
5607 2.7270955123483618 0.31041787984793179 3.2171882030523515 11 11 13 0.90397623309311104 75 187 92 337 94 374 95 114 95 360 93 348 96 116 96 392 90 173 98 101 97 197 99 284 100 207
2280 1.4018968393036464 -0.021036077025892139 3.0679269954386044 126 127 119 1.569753649438977 17 10 15 9 9 3 16 9 14 7 10 12 8 10 6 14 11 11 7 14 2 200 13 2
4637 2.475835145506287 -0.15876046599574556 2.2806684057119688 33 41 49 1.9048655981967577 34 161 87 326 92 303 88 303 94 308
2848 1.5163881370399945 0.52973287755402043 2.773797677462158 75 74 80 2.1077966231580638 16 64 62 44 10 50 6 54 58 52 57 114 60 96 63 333 64 104 55 90 55 449 11 35 59 92 53 79 49 58
1739 2.1297779561946806 0.2988504706851367 2.9895250287301125 5 20 30 1.9458604240017696 73 290 19 229 76 373
4096 3.0662586960907414 -1.2190199499883059 3.2644309476380631 97 93 90 0.078106640981863429 52 325 51 350 49 305
2537 2.8424250942442759 -0.82113372018733533 3.1973720816465963 40 43 48 1.8254478522482012 67 85 65 79 56 61 62 428 63 381 64 495
1996 1.9170955399394203 0.16545782696446415 2.6119840936630725 0 0 0 0.85170015586619663 19 397 71 274 76 396
4353 1.3332916650204747 -0.0066036777693329789 3.3452015439710601 38 37 35 0.64659499121601238 4 2 61 3 68 3
2382 1.4267157459824404 0.22321836137936632 2.6435159272744269 55 63 69 1.7907227442272047 67 479 56 458 60 467 65 494 63 481 66 446 64 514 55 558 59 546 53 374 53 207 54 276 52 175 50 161 49 113 51 90 47 181 45 87
1841 1.1410955067851889 0.37682939917466463 3.4392877917584439 246 246 246 2.3972095462508856 19 451 73 428 76 487 18 408 71 476 17 93 79 384 8 150
4198 2.4597432713321825 -0.042832663592162368 2.6076711823150402 27 36 44 1.1276677020398633 49 420 47 377 45 283
1433 1.4834565158702644 0.77040258697385955 3.311562890278994 21 13 15 1.3071837640288075 22 374 25 413 91 385 77 444
6147 2.1752685747248512 0.23469500199170085 3.0558101507645428 15 21 25 1.3197621382426472 37 427 33 432 35 261 37 332 32 240 31 268 41 470 48 485 44 488 39 396 38 407
3790 1.1848885218444212 0.71143784630795814 4.154741370127188 26 22 23 2.1669910741363103 55 162 59 165 53 213
2542 2.4773867828552554 0.24683839375035949 3.0773907687519699 51 56 61 1.1788540792726141 67 134 65 128 56 205 62 425 57 287
2001 2.217581430790672 -0.14416127327978753 2.2838596731953964 35 42 54 0.7106120001491254 71 321 74 329 70 328
4358 2.6456261362263858 -0.71995516956472849 3.5291051450362785 255 255 255 1.325262049601764 89 54 78 32 5 193
2937 2.5733028743852246 -0.71051503043634789 3.2663908078067125 17 14 23 1.165044306475705 10 292 8 261 6 167 11 73 4 76 7 85 5 47 2 49 89 53 78 51 68 43 61 45 42 40 34 42
2942 1.194792240588245 0.30000962608304971 3.2209562261470821 171 171 171 0.79053582064413508 14 313 8 295 9 212
445 3.4193623451667969 -0.52597741783258711 3.216690989618721 61 57 54 0.2815820817279987 40 138 43 118 46 177 48 122 44 100 41 179 39 210 38 213
5532 2.4717124806200017 0.035325966917922356 2.7629385488995926 52 59 68 0.11779287980475435 88 316 92 298 75 374
2205 2.3211828251521442 -0.37260826435645888 2.3563847785442782 40 48 58 1.7259258054922131 17 361 70 341 69 366 66 345 16 358 18 440 9 254 62 363 57 386
4562 1.563034590957999 -0.078745158497923615 3.3825331469439273 10 11 11 0.65330088069950232 78 104 42 98 34 63 3 82
2462 2.7219899254452855 -0.60795741829439653 2.9519070531705478 55 56 58 1.1191528324315754 16 339 15 344
4819 2.0243225313003435 -0.40945779964387985 3.3625941523046921 13 14 16 0.65881371471915173 12 439 3 207 1 165
1921 1.5731464646547653 0.33750634937673751 3.4154599430690147 0 0 0 0.14754452053216088 22 0 24 1
4278 1.3399628764337685 0.1296005823500018 2.9837583952007187 38 38 37 1.4696873506756734 2 140 89 180 78 166 68 170 61 379 42 111 42 342 34 150 34 337 23 152 23 447 12 228 3 361
2976 1.2066634803479952 -0.024881536191929562 3.0886336220756885 66 68 72 0.1914738232119168 16 408 8 473
5333 1.2104827716762208 0.73725454782160615 3.1940396624762899 37 32 35 0.97947599146014652 86 295 88 401
1894 2.6583524418243818 0.15107705006389724 2.6877287576181215 137 137 146 1.4683596563777777 91 133 79 285 77 199 74 298 83 245 80 134 84 187 81 410 81 109 82 170 85 337
4251 1.724684395501803 0.76260149389879484 2.9501765216552447 99 99 97 1.3381565454872251 49 352 45 368 35 362 30 200 29 196 26 175 27 407 28 270 24 234 24 266 22 290 22 363 25 149 25 393 20 112 73 156 21 217 76 224 91 399 18 198 74 209 17 222 72 220 70 237 69 116 79 274 66 174 67 264 16 178 15 145 9 177 65 254 56 269 62 183 79 337 58 297 14 175 8 257 10 298 6 444 57 199 60 287 63 190 55 409 59 407 54 371 52 215 50 157 51 150 13 174 80 278
5665 2.1494012731720371 0.18023465842373521 3.4416972283275147 35 35 36 0.0631208224927889 23 237 95 206
2338 2.2935824254624864 -0.48672516322022946 2.7506015160769675 148 142 145 1.4893600325796237 69 130 67 121 65 191 56 162 62 66 58 135 60 75 64 515 55 562
4695 2.1369760750790432 0.09160274496706397 2.6407331237562315 51 65 72 0.78564553565004269 8 12 10 264 1 34
1797 2.6444497910024443 0.0032346538150271119 2.6423287321863342 255 255 255 1.9891514190383563 19 31 76 32 18 21 71 40 72 95 21 28 20 15 73 38 69 173 70 198 17 46 86 20 88 22 92 9 75 41 93 18 97 16 100 24 98 16
1486 1.4249849361322788 0.4739377331443263 3.4065648387246541 44 41 45 0.17151181521201919 24 168 81 197
2595 1.5792632674035687 0.68343514944397488 2.7448681801007631 255 255 255 0.715066838156458 65 270 56 67 67 474 62 70
2991 3.4879583729560006 -1.1379092267749029 3.4781075342114556 255 255 255 3.6931619069889345 10 111 8 89
1909 1.4298691402581751 0.38487567440355364 2.9230027940665941 77 78 78 1.3599711200884999 32 360 31 388 29 263 20 397 18 359 27 425 30 399 24 206 25 383 13 263 81 352
457 3.5344724040228876 -0.18982176905244671 3.2205276064574728 21 10 10 0.57706830170338475 40 2 43 3 46 3 48 3 37 2 44 3 41 3 39 1 38 2
5544 1.4789514625524827 0.47471992681358693 3.0369199971483605 60 62 66 0.85546442159297909 87 79 92 68 83 85 84 94 73 152 91 93 21 127 76 154 71 155 74 137 17 106 77 165 79 77 70 217 69 287 66 426 15 135 9 176 14 155 10 285 13 138 80 98 81 93 82 84 86 54 88 76 75 119 94 71 95 177 81 155 93 187 98 204
3187 1.6598805462884461 0.78029917791226588 3.3808416765310341 41 42 42 0.91436027858140978 6 343 14 212 4 260 8 297
2217 1.574573357680692 0.65867905735903909 2.9864476078755802 70 72 77 0.24951774579675667 72 397 70 447 16 468
403 3.2575834157990498 -0.73195512598657342 3.264296412272425 106 98 91 0.24426605941539598 40 204 43 328 46 199 48 375 44 209 41 369 39 309
5490 1.2593284446037905 0.10611107602515739 2.9008939687195725 255 255 255 2.0150584902511519 87 65 92 8 75 14 88 61 94 13
2163 2.9304283540927236 -0.57744462993078283 2.7923564769168547 255 255 255 1.9010199747788155 71 186 72 121 10 137 4 194 68 128 3 264 7 178 34 115 61 129 78 134 89 111 42 131
2483 2.3725634057435014 -0.29181899643939047 2.280523994074132 61 61 63 1.6746683831535287 16 27 67 20 69 23 70 18 66 25 65 26 9 30 56 14 62 16 14 25 8 27 4 40 7 68 5 70 2 125 60 15 63 15 59 12 55 15 53 13 89 146 13 29 68 133 61 180 34 292 42 218 12 302 12 300
3024 1.9026727695633929 0.11878298511703361 2.6389206546613293 43 65 72 1.2832227514086998 10 262 6 219 11 136 4 131
3021 2.2062160469485188 0.069959307481667621 2.6482557487980727 255 255 255 2.1623542151171975 10 110 6 201 11 392
5378 2.3466691978858338 0.30992907717397034 3.1856265536348607 25 25 26 1.0528475585948951 85 238 88 226 87 209 92 335 94 116 96 117
2480 1.4573313065553586 0.42432635646435712 3.0132755827403019 46 49 51 1.5656515166463942 16 94 67 126 30 197 26 115 27 98 28 136 27 154 24 85 25 60 20 87 73 80 21 86 19 94 71 71 74 42 79 74 72 89 70 149 66 294 15 65 10 244 8 243 4 370 13 86 83 46 84 46 82 44 86 29 87 38 92 62 75 68 96 88
4837 2.7070166379914462 -0.59762387809651185 3.1032862491600901 20 26 33 1.7179534166502879 78 335 12 325 3 73 89 182 78 126 42 377 23 67
2258 2.044766966579969 -0.48697367431200722 3.2865437148343508 7 7 9 1.4134157604917874 70 250 69 426 57 435
4615 2.0055783355136891 -0.32538302759460291 3.4962295680776503 237 237 237 1.4564432136260752 61 276 78 426 76 316 72 225 66 248 67 58 65 58 56 435 58 59 14 436 6 118 11 227 7 110 57 72 5 77 60 257 63 53 63 232 64 519 55 104 59 112 53 101 53 392 54 259 52 303 50 171 51 193 47 502 13 156 78 143 42 290
2826 1.6532942349824689 0.00015204476319121565 2.9245840608274127 63 64 67 0.60789464504771396 62 498 14 403 10 375 11 410 7 300 5 299 2 380 89 426 78 239 68 313 42 232 34 341 23 241 12 356 3 292
5183 2.5106136722700545 -0.47389446799674362 2.3112466233089179 0 0 0 2.89759917378559 34 291 8 204 84 140
1717 2.3408843859642441 -0.32892245096843425 2.5539594361945581 80 83 89 1.0265953060029143 73 19 19 17 76 22
1920 2.5443606021622331 -0.127724804439835 3.3527063973555076 55 68 72 1.5252689201353138 71 0 72 0 70 0 69 0 66 0 67 0 65 0 56 0 62 0 58 0
3029 1.2792760396761993 -0.011425913722562457 3.1297127219432763 23 26 32 1.6921380226770042 10 334 6 236 7 251 5 163
5386 2.6600311015580616 0.32761020790136774 2.9936112503318624 23 27 36 1.5586887684010089 88 350 87 303 92 234 87 311 75 208 75 392 94 312 93 328 96 139 90 280 97 144 99 291 100 199
2488 1.3207581395482728 0.11054033253380753 3.3325944482631416 41 40 38 1.400259359554149 66 228 67 437 91 47 73 77 19 65 76 67 18 63 71 98 74 58 17 95 77 52 79 40 70 117 69 451 20 304 70 452 15 70 16 143 83 111 84 45 84 101 88 128 87 134 94 237
2648 2.0667188864486121 -0.23347976138241144 2.8789304301610787 28 36 42 1.4062753705564395 76 259 18 284 71 277 17 247 70 293 69 184 66 260 67 203 16 187 15 242 9 188 56 238 76 407 71 374 17 381 9 374 16 389 65 294 67 333 62 258 58 483 14 232 10 176 8 136 8 288 6 415 11 180 7 214 6 186 5 254 2 184 2 343 57 196 57 483 60 223 63 358 63 498 63 502 64 255 64 492 55 348 55 560 59 544 53 366 54 298 50 463 51 420 49 205 47 483 45 237 89 207 68 341 61 197 42 175 34 141 23 160
2107 1.7145990935118796 0.49854459918339727 2.658881256692804 0 0 0 1.1887676454452434 73 4 77 42
4464 1.647090130866534 -0.0096965191181888292 3.0428926288245912 21 26 32 1.3120497015882879 78 235 1 330 3 219 68 356
3032 2.2239090455572383 -0.65331278278169103 3.0230728367702797 25 35 55 0.61578417676996711 8 378 10 413 6 262 11 261 4 311 7 198 5 190 2 191 63 454 89 179 68 172 61 170 42 167 23 149 12 158 3 133 1 137
1950 1.3414117849236196 0.21730538044435777 2.7337560065417472 24 21 28 1.6923546096861208 19 300 71 308 77 360 69 153 67 241 16 182 80 312 65 142
4307 1.4046851927747221 -0.10728757010007303 3.0188510866332954 177 178 178 0.87779416393660736 4 164 7 194 5 182 2 319 89 272 73 387 76 240 18 264 17 295 72 311 70 210 69 329 66 194 67 311 16 240 15 197 9 224 14 271 10 358 8 330 13 206 78 324
2322 1.5212537778537909 0.55769470998489346 3.0467250804364467 59 62 67 2.0209463674184649 30 123 29 77 27 64 24 37 21 63 76 74 19 72 18 67 74 86 69 155 66 169 31 203 30 390 29 256 26 266 27 392 28 352 24 239 24 325 22 275 25 380 73 391 21 385 19 411 76 287 18 251 71 468 74 381 17 163 77 74 91 78 72 297 70 100 70 428 16 95 16 301 15 81 15 408 9 163 8 167 4 299 6 247 13 142 80 77 81 73 81 290 83 76 84 77 82 65 85 104 86 85 88 37 87 83 92 79 75 237 94 133 90 134 98 169
2890 2.1464247933561347 -0.47858180628669278 2.8604189223483085 38 43 49 1.5398644797718075 9 14 14 12 10 23 69 17 66 18 67 16 65 21 56 12 62 25 58 17 6 17 11 16 60 13 13 10
1781 2.0687068970213516 -0.56088611895098239 2.896176074393332 16 18 25 0.75228609417616543 21 433 73 370 19 271 76 398 18 341 71 118 17 274 71 407 72 254 70 279 69 375 66 258 67 255 15 241 9 371 65 277 56 264 62 320 58 356 14 367 6 285 57 342 60 334 63 226 64 311 55 259 59 347 53 505 54 348 52 247 50 323 51 74 49 34 47 74 45 53 13 437
4138 3.4649883090121039 -0.76263792521097784 3.2148697335647505 85 81 74 0.27170267344561433 51 207 49 164 45 164
2328 2.3635934340500522 -0.52794223296547493 2.8852042781968912 130 125 130 1.4680786505489851 65 14 56 4 62 7 58 5 57 6 60 6 63 6 64 7 59 9 53 8
4685 2.3195778643977323 -0.67734525118226074 3.5014516914626932 114 114 114 2.0205424687712843 4 325 7 312 5 219 34 123 15 219 9 307 17 80 70 99 65 261 56 253 14 391 10 152 66 190 53 197 89 293 23 125
2585 6.4765276480647165 -1.2687307479366341 7.4601231642660979 87 83 80 0.62398206530899125 66 17 65 15
3126 1.5042234523380702 0.49438803182582908 2.878131193629426 106 105 108 1.470992821493244 10 496 16 110 11 437
396 3.1839976980650837 -1.2082958896449685 3.3149974987144311 105 98 92 0.17173288828979438 43 224 46 191 48 385
5483 2.936671883910682 0.19114812683716281 2.9250315962693447 127 127 127 1.7960838938830495 88 116 87 77 92 38 83 56 88 44 87 34 75 96
2327 2.4635854761407976 0.25229716688266413 3.1199099705694624 10 16 30 2.2034264175273877 17 275 66 270 67 186 65 405
4684 1.692550908121611 0.21278590269551242 2.624487141093395 43 65 74 1.1853128722980846 10 382 6 396 65 302 11 211 5 349 5 122 58 258 14 129 89 385
2895 1.2922451715024312 0.2407450269794065 3.4317969525320078 14 12 13 1.7494122375787726 18 193 14 200 10 232 21 305 73 327 29 304 26 275 25 262 19 290 76 337 18 404 19 441 73 424 71 460 74 274 77 289 79 273 22 189 28 339 91 68 70 294 69 333 15 293 9 258 9 418 14 316 14 428 8 235 11 332 4 497 81 103 83 305 82 297 85 278 86 250 88 264 87 244 92 383 21 201
677 2.2178181156429719 0.18067365567534363 2.9710029512059593 55 58 63 1.8753500805567671 48 300 33 430 32 194 30 213 37 181 29 211 44 296 39 283 41 468
1786 1.3008215093237461 0.16919320154488729 3.1654797546327917 70 70 70 1.919059996788413 28 338 24 315 22 263 25 419 91 193 20 375 73 193 19 199 25 264 20 433 73 453 21 448 76 212 76 328 18 177 18 183 71 437 71 445 74 263 17 282 17 315 77 302 77 403 72 280 72 284 70 286 70 460 77 217 69 465 66 311 66 407 16 134 16 218 16 285 15 311 15 316 9 218 14 209 14 249 10 223 8 304 8 307 6 438 11 301 4 219 7 217 5 236 13 126 13 319 81 209 81 211 83 250 86 294
3098 1.2239700324823153 -0.040458376288160111 3.2464416645854071 53 53 51 0.31724659799178823 6 212 11 229 4 229 7 232
2016 1.4040042135958459 0.34162018095019858 3.1261178572543349 55 56 60 1.3119250011783621 20 380 73 404 21 446 19 420 18 422 74 261 21 292 73 281 17 311 77 215 79 399 69 466 16 421 15 302 9 285 14 276 10 449 6 487 13 304 81 257 84 365 82 395 85 205 86 204 88 290 87 386 92 202 75 190 94 240 93 271 90 344
4373 2.6528687706526863 -0.57032681054249013 3.0423819775960141 60 60 62 1.3117272291896593 2 189 89 274 78 131 68 90 61 85 42 62 34 61 23 79 12 46 3 49 1 69
2143 1.5223936704719638 0.50839250223818278 2.9446252456336195 109 110 113 0.31020081256760418 22 339 79 410
4500 1.463823763335327 -0.032680105962315346 3.1239707474963496 43 53 59 0.6106743165108951 68 449 61 176 42 287 34 166 23 197 12 335 3 213
464 2.9887265365478801 -1.2188546796888109 3.289939855211129 83 81 81 0.15459800819376207 40 39 43 35 48 40 44 34
5551 2.2743251967714992 -0.36083906975938096 2.6588762373007628 170 170 170 2.2622189218375381 92 130 80 276 81 194 83 323 82 96 75 349 95 282 93 113 95 118 87 24 97 59 99 15
2224 1.5891407653337553 0.60706202168123446 2.7755883685051193 42 38 44 0.72045726592569947 70 12 69 14 66 21
4581 2.6325999466637353 -0.73421967575520564 3.2849262363545302 64 67 74 0.37884451304719818 78 220 42 279 34 173 23 369 3 199 12 224
5634 2.8041049579619308 0.22370004583722833 2.7405074348607381 23 23 25 0.91842181491606134 75 115 87 297 94 156 88 211 85 451 86 304 93 111 97 57
547 2.7672480957201406 0.10011369396514637 2.7889251393900047 139 133 136 0.2125457798606345 40 431 43 344 48 523
2765 3.2503200901857605 -1.2890302851414612 3.3544276141087024 57 55 56 1.6649595073625185 58 420 6 386 57 389 60 446 63 388 64 339 55 580 59 552
3122 2.3164705474416074 -0.032347217679051694 2.6457675833627947 148 146 148 0.34483862873619736 6 400 11 391 7 205
392 3.2260627431186539 -0.43218062643361621 3.2221993294412319 1 6 4 0.66891690416394345 40 181 43 220 46 182 48 116 44 198 41 187
5479 2.4763948726990561 -0.26586544135119478 2.4050196010687954 66 67 70 1.1086146555451619 87 1 88 1 85 1 86 1 83 2 84 2 80 1 81 2 22 1 24 3 25 1 91 1 20 1 73 0 21 0 19 0 76 2 18 2 71 3 74 1 17 1 77 1 79 2 16 1 15 1 9 1 28 3 82 1 92 1
2581 2.1265780680164204 -0.56522326913724708 3.1363626615015838 62 63 67 1.5661370517125592 72 40 70 46 69 41 66 39 67 34 16 25 15 30 9 20 65 37 67 265 65 245 56 33 62 41 58 32 14 18 10 22 8 20 6 20 11 20 4 26 7 23 5 23 2 22 2 28 89 26 13 24 78 31 68 23 61 26 42 23 34 29 64 316 23 21 12 21 3 21 1 17
2040 2.5262016030465975 -0.45218351365859111 2.4089337993248519 35 43 52 0.85371521919175475 18 172 17 191
461 2.331453012048319 0.14879206203089809 2.8463765261064164 34 37 45 1.5047995055360219 30 9 29 11 28 11 24 16 22 12 25 17 20 20 21 20 73 20 19 19 76 24 71 27 74 16 17 32 77 15 72 26
5548 1.3621480262898766 0.31852372422119363 3.4006367656515355 69 69 69 1.5554219434630472 92 282 75 259 20 124 71 136 73 161 74 127 14 204 8 163 6 111 83 211 82 189 94 230 96 360 90 331
2221 2.2734520938209695 -0.20314828229554802 2.3461292127848523 22 28 37 2.3905373054252519 30 295 29 325 24 153 20 240 76 366 70 201 24 287 20 172 73 306 21 319 18 315 74 122 72 239 69 362 66 140 67 205 67 362 9 198 15 310 16 329 65 137 62 133 74 332 19 367 58 397 14 251 80 136 81 324 82 322
4578 3.1296645091394715 -1.3882990212881219 3.3051471256307297 69 70 76 0.94339884388099782 61 428 42 248 34 176
2478 2.0634872558385822 -0.53597674646483484 2.9096696937876279 36 42 45 0.87120624177004624 16 385 15 360 73 237 76 257 74 363 21 281 72 354 65 253 62 269
2290 2.2072612950170183 0.15512526671296675 2.9819113460165565 39 60 67 1.6038072256594753 69 77 56 181 66 87 62 392 58 371
3061 2.2827332405241574 -0.66777540958130643 3.1684067081776552 37 36 33 1.497126036949376 10 189 6 481 11 470 4 475 7 271 5 437 2 310 89 256 78 349 68 412 61 292 1 231
441 2.7192428546158327 -0.28195024599680452 2.9677708073194129 27 36 44 1.4158124698892589 40 197 46 115 43 116 48 304 44 190
5528 1.4051172457694268 0.34705982988514189 2.5637877427758768 108 105 114 0.26891686021979205 92 294 75 337 94 290
2201 2.4452091322628204 -0.44475121228015507 2.4240645300736698 24 30 41 1.1836697701307499 72 347 70 327 69 202 66 159 67 92 69 108 65 92 62 88 56 83 58 56 57 52 60 51 63 48 64 55 55 39 59 55 53 46 54 80 52 71 50 47 51 47 49 73 47 70 45 69
3229 2.685324118546931 -0.93969410369224393 3.370072256304232 15 16 12 1.6210397823314089 4 346 7 45 2 324 89 313
3239 3.2911635199099276 -1.2818424224746101 3.5635844866340243 117 117 117 1.2984635842420795 4 257 6 37 7 163 5 484
5596 2.6352040663378657 0.33154870260556468 2.8438777211168511 43 43 52 0.58981791441685216 75 310 94 333 95 315 93 200 96 226 98 290 97 248 99 146 100 197
2157 2.4164874670803318 0.26379151316339877 2.9221021247058694 0 0 0 0.4758549527796142 20 2 79 3
2347 2.2678266671148433 -0.61721931444312972 2.7720279798947485 159 155 156 0.76439851607281972 66 366 65 367 56 277 62 295 58 140
2604 1.6423855514299388 -0.19544208446749933 3.0209092230219787 98 103 108 0.42165497398811902 65 155 56 139 62 164
2063 1.4243924092265974 0.42751818172447759 3.4010886225504797 171 171 171 2.2716804479854313 73 210 21 199 19 206 76 219 18 192 73 160 76 220 71 134 74 186 17 147 27 137 24 170 26 132 72 430 66 167 67 248 15 211 16 452 9 213 65 239 56 223 62 249 13 211 16 323 81 201 91 384
2974 1.5844331978555832 -0.087301166450569873 3.3323113519787495 34 36 41 0.44489166020696735 10 317 8 466 4 444 7 303 5 216 2 224 89 217 68 205 3 163 1 166
5679 1.7222553229914475 0.46795510326161799 2.8667103452636651 63 65 69 0.90757733191689804 75 391 94 319 95 310 93 316 96 297 90 312 99 145 98 175 100 238 90 309
2352 2.0507573586662668 -0.54410357039404067 3.0162421044146819 65 69 74 1.953767873681435 18 326 67 262 16 275 15 297 65 160 62 159 10 121 8 123 6 134 11 114 4 152 7 129 2 190 2 469 5 189 6 384 57 167 89 178 89 355 13 373 78 163 68 248 68 251 61 167 42 121 34 110 34 214 12 172 3 128 1 276 5 185
1811 1.3690396766419974 0.34744910089809655 3.3800483219793414 177 177 177 1.8388587717749645 19 208 27 138 76 222 71 135 74 128 77 155 69 145 91 380 16 142 25 133 9 111 6 457 13 128 83 402 82 399 88 266 85 194 75 174 95 157 95 204 96 161 93 416 93 165
4168 2.9534806587486666 -0.68179853349276442 3.4427432427577953 255 255 255 0.30838583771443068 51 344 49 464 47 493
1757 1.7316463129542807 -0.035591973157108728 2.9972187480417718 32 34 39 2.1071406459427733 19 357 76 399 18 195 71 449 72 405 70 257 69 432 72 404 66 306 67 324 67 471 15 217 15 436 66 165 65 498 58 452 57 320 60 476 63 450 64 506 54 483
2866 1.4336294090717077 0.12438224484754562 2.9946466524849815 31 38 48 1.4812228100775309 14 220 10 284 6 26 11 23 8 24 4 25 7 25 2 141 5 54 89 46 78 85 68 168 61 86 42 124 34 102 23 279 12 257 3 151
1784 2.5121026705588525 0.29933141890952064 2.8272416704071732 14 9 12 1.7462990679716888 25 249 21 232 19 257 25 322 91 232 73 262 21 355 76 283 18 217 71 345 74 241 17 318 72 240 72 331 70 351 70 386 69 371 66 401 16 321 16 349 15 340 9 338 9 339 65 344 62 359 14 342 8 366 76 349 13 345
4141 2.7644085697414851 0.082681285114903802 2.8405187549273512 81 83 90 1.7358676079743887 50 228 49 220 47 229 45 346 45 417
3123 2.4671563194233062 -0.44811562906590907 2.7109817722305718 76 83 88 0.9269979038650058 6 215 11 393 2 344 89 334 42 308 23 318 3 272
5480 1.5287526189802101 0.58351418602906724 3.303703180595901 32 34 35 1.3331910452939812 88 181 14 458 91 259 81 145 83 308 92 423 85 196 75 384 81 408 94 405
2041 1.53569011869946 0.60125908833179464 3.1788519761724263 96 98 99 1.0960157150934047 19 197 76 206 17 236 72 197 70 209 66 293 67 458 16 245 15 201 9 317 65 323 14 270 10 357 8 339 8 447 14 308 6 329 11 325 13 198
1506 1.4217590208039406 0.37272605303985135 3.2226686344416873 68 72 74 0.83408605647308154 25 257 27 206 91 98 24 248 20 132 73 144 21 134 19 139 76 161 18 120 71 210 71 423 74 144 17 151 77 159 79 69 72 191 70 216 69 297 66 413 16 211 15 140 9 93 65 306 13 205 80 104 81 52
2615 1.7621144008661962 0.02167519603299373 3.4740777729638701 44 53 57 0.37772083326760086 65 152 56 206
2074 1.7954891511369517 0.62901498838989434 2.9663440451912879 105 107 106 1.6697049970046594 26 283 74 67 77 75
2286 2.3786435121521285 -0.59866829763217466 2.8249219442399318 127 127 130 0.38945532876336081 69 83 66 57 67 54 65 56 56 39
4643 1.3799340658654307 0.18141371693776953 2.8049892902869242 92 95 96 0.45503522434496629 42 226 34 237 23 218 12 240
2543 2.6729958847894286 0.077543010253356345 2.6869760457567344 161 153 156 1.4475035133130842 67 141 65 140 56 107 62 129 58 225 57 363 60 137 63 286 64 218 55 216
2345 2.0986264114516509 -0.55968806339488408 3.4768456617185861 16 17 17 1.5880429037739294 66 447 16 235 72 266 9 316 70 247 4 230 67 179 10 148 1 27
2602 1.7586546537858936 -0.064077466272091876 3.3936315297965534 98 103 108 0.4883869040744388 65 96 56 137 62 175 58 170
377 2.7430323778677255 0.25047421586078167 2.774788901384992 57 59 63 1.1366265499532522 40 68 43 60 46 94 48 71 44 84 41 43
5464 1.380478983385689 0.4526890366435431 3.3673297199042849 181 181 181 1.3436385177069141 87 364 92 384 94 174 75 269 95 203 93 279
3107 1.8885446675724111 -0.23786532308923844 3.415780834818813 8 10 10 1.5988016016640081 10 460 11 315 4 322 7 473 5 449 5 451 2 431 89 442 13 409 78 438 68 469 61 463 42 405 34 381 23 441 12 397
2137 1.5497887756415036 0.32596163999918276 3.0628689511514349 52 55 56 1.5846157462873793 91 67 79 352
2361 5.5320916567044351 -1.4241607946245742 6.0726587577996964 248 247 247 0.67362632965178126 69 176 67 302
4718 2.4002717894237984 -0.44797945244816834 2.4121236846502612 71 74 80 1.2265366619199065 34 312 23 328 78 486 23 326 12 295
1515 1.6217441357176161 0.021523883313757056 2.9426798065997035 62 65 70 2.2467226870783281 25 347 20 236 21 412 19 89 16 111 69 172 71 259 8 102
2624 2.5628511167763444 0.20805829428934178 2.8403749445090276 125 131 136 0.75293954782901051 9 330 56 316 62 364
2083 1.5207064014597729 0.39379261566675045 3.565925602407527 0 0 0 1.0570205059780675 25 134 76 221
4440 3.1941305581116772 -1.2965120166637263 3.3778922121236792 28 24 25 2.0899419759679847 78 212 68 208 61 203 61 288 42 432 23 406 12 435 11 462 3 321
2497 1.5604812153433263 -0.082304260626406597 3.2841871506228446 19 23 28 1.113747428215117 14 252 10 146 8 472 6 107 11 96 4 104 7 78 7 346 6 429 5 109 2 78 60 542 9 72 89 119 13 146 78 100 68 96 68 392 61 69 42 102 34 74 34 246 23 56 12 84 3 74 1 79
2437 1.2108430146287896 0.17684221749572462 3.474826124020904 29 24 23 1.5771098759899169 72 125 15 96 10 493 6 449 89 429
2978 1.7281110985115173 -0.1695508925104815 3.4100894120196314 29 30 33 1.0336638532785707 10 508 8 476 6 458 11 525 4 486 7 471 2 435 89 441 78 201 68 470 61 464 42 284 34 183 23 442 12 393 3 159 1 354 34 400
1869 1.4537698055037842 0.44586479095966725 3.1454541071186179 83 84 88 2.0258569546957284 26 361 31 379 27 396 28 256 32 265 24 316 22 261 22 262 25 385 20 282 73 205 21 192 21 461 20 197 19 198 19 421 73 402 76 489 25 260 91 366 20 382 29 405 25 375 18 289 18 438 71 417 74 219 74 262 17 211 17 452 77 303 77 305 79 267 72 388 70 319 70 412 69 423 66 404 16 313 15 194 15 433 9 377 9 409 14 214 10 359 8 337 8 410 13 180 13 311 80 252 81 246 81 256 83 260 84 249 82 234 86 423 88 278 88 371 87 260 92 218 92 220 75 186 75 422 94 243 94 344 93 196 93 246 97 148 97 284
4226 1.2005533269375948 0.064971332115850502 3.2884426022792823 99 100 104 0.29802769514265082 47 60 45 57
2434 1.5345027814697052 0.61269412960517133 3.3275272201940997 89 89 89 1.4473394309562453 16 212 15 44 14 233 10 363 8 302 8 467 6 425 4 356 13 315
1893 2.5114129340766542 0.010450337339750801 2.7184272558426867 48 49 70 0.26182084299431008 19 364 18 299 17 355
4250 2.5396780517517858 -0.74936394588748245 3.422648037060942 218 218 218 1.6470427294047869 47 28 49 32 56 51 62 46 58 76 60 46 57 110 63 52 64 28 55 30 59 31 53 26 54 24 52 39 45 29
2123 2.6619471149539948 0.060697167263928826 2.7095708932965286 83 81 102 1.6450722576487125 91 330 79 232 87 334 86 310
4480 3.017819158631255 -1.2763441265825253 3.4055167415114953 53 53 51 0.35517708557162053 78 407 68 466 12 448
656 2.640103524800343 -0.33931634493347296 2.3311759977912794 12 20 32 0.31782281023350822 37 231 33 314 36 318 35 330 38 219 39 171 41 190
5743 2.2587593900352769 0.2027464584276778 3.0197341169597829 20 27 31 1.6351166554719441 75 317 95 240 93 364 90 278
2416 1.4135156530381117 0.48092827753987827 3.3769295162634534 32 29 30 0.81352495446443829 72 432 16 450 13 386
1875 1.475107773260572 -0.32181823503391621 3.1952698070693821 255 255 255 2.2968402024658472 91 3 71 4 77 2 72 4
4232 2.2730715258206367 -0.28618234258472469 2.4508347225310168 94 100 110 0.52323221084813565 47 284 45 264 49 252 51 198
2646 1.4761997241895726 0.33218634134788821 2.6050538885667058 71 78 80 1.8105000314530002 65 274 56 100 69 312 71 255 66 439 18 381 62 168 58 103 57 112 60 83 63 79 64 77
2105 2.062845645969428 -0.49976324796121385 3.0823922967455952 54 59 64 1.2058918232477491 29 92 24 243 22 322 77 273 25 353 91 307 73 358 19 447 74 356 17 372 20 354 79 247 69 385 15 161 73 259 65 272 80 238 83 290 84 231 82 236
4462 2.309348310363105 -0.33029493423049144 2.358223760263622 31 39 50 0.66217476904396344 78 256 68 351
2930 1.5613586158833053 0.76683617351472622 3.349630665629221 255 255 255 1.82091065634319 10 34 56 311 9 22 16 23 11 43 5 19 6 33 13 62 78 47 2 16 89 18
5287 2.5158771342890227 0.36758224670171241 3.2655322159227027 4 3 4 0.62827459105667527 86 75 91 316 88 75 87 81 92 83 75 74 94 76 93 72 95 111 96 114 90 104 98 106 97 125 99 171 100 121
2389 1.5348123198165409 0.57928493075682408 3.3565507636275629 46 45 46 2.1358339766189554 31 279 30 202 29 201 26 399 22 269 91 416 19 463 18 429 77 295 70 406 67 452 21 449 25 269 70 408 66 417 15 284 65 334 14 259 10 462 8 468 13 380 13 393 80 248 81 394 84 302 83 425 86 249 11 530 86 251
4746 1.6832817771737747 -0.094794078586460204 3.1257534440369859 44 53 58 2.3955054325687706 23 1 12 1 3 1
532 3.5819739079019848 -0.30810692316518018 3.1834297298791929 20 17 11 0.77588256815774004 40 328 46 281 48 439 37 322 41 216 39 173 41 182
5619 1.9566158430607861 0.31154266776197165 2.8620204257047899 50 51 55 1.6106318963667612 82 269 85 120 86 135 88 88 87 53 87 229 92 31 92 403 75 61 94 25 94 330 75 243 87 308 95 52 93 28 93 141 95 319 96 26 96 341 90 37 90 207 98 51 97 31 100 23 99 32
3262 2.0960769582745731 -0.57285850821807305 3.3084293834856298 57 59 52 0.93817517714015142 7 342 5 272 2 107 5 115 78 462 68 158 68 290 61 149 61 295 42 249 23 134 3 122 1 170
2292 1.4909393424779926 0.43874113432730638 2.6750635319821399 4 8 34 0.70719390879775512 69 121 66 148 65 259
4649 3.0050032503113697 -0.65540665761764605 3.215666587475809 23 35 38 2.0213433320754084 42 260 68 122 23 402 34 258 78 54 12 140
2549 2.4077785008310171 -0.052227800099852888 2.4283551858203754 139 135 138 1.2425271047648847 56 197 62 366 58 406 57 411 60 386 63 398 64 449 55 462
576 2.8525508443046523 -0.14932288466085289 2.6551317609893865 66 66 67 1.0456835824806032 48 309 37 383 36 388 44 529 39 314
5663 1.3857990725690872 0.33049749410073126 2.6995341212142261 102 101 104 0.2829738595061328 75 159 95 200 96 329
2336 1.2841132622998039 0.13688144229316371 2.801574583097842 102 102 103 0.90640944369389309 66 38 69 46 67 102 65 144 56 185 62 246 58 503 70 70
1795 2.7567949768247644 -0.55944744357703702 2.8671668408077209 54 70 75 1.8164098052805495 73 29 9 17 10 9 8 6 6 5 11 5 4 10 2 4 5 4 89 5 15 13 17 15 18 15 19 29 13 12 78 4 76 18 14 4 16 13 21 13
4152 1.6240280432157435 0.57254983467622356 2.9756401426102594 174 174 174 0.48011146176956054 54 434 49 343 47 428
2025 1.0948356514410591 0.10109598659029073 2.4504631796100962 19 22 28 0.4670276115229427 21 264 74 204
4382 2.2855913328073196 -0.67178078442589384 2.9339554313554896 60 65 70 0.74751662317800627 89 266 42 351 5 257 11 425 34 333
508 1.9946455316496332 0.018511402733568171 2.5663676927885288 42 63 70 2.1239117956303084 46 325 48 293 41 301 48 188 39 287
2865 2.4575403830137361 -1.1139790329644064 3.0559355616242883 0 0 0 0.11330745971781211 56 270 67 281
5222 2.6715313891665455 0.12727075822513864 2.6642337015363569 255 255 255 0.97860841959919032 17 117 83 150 86 115 88 117 87 118 92 111 75 117 94 97
2726 1.5635913581575744 -0.091030060115432146 3.4030267044345304 18 19 22 1.6557544538418874 9 33 14 417 8 451 11 322 11 489 4 488 5 456 2 462 89 12 78 9 61 465 42 406 34 5 34 404 23 11 23 438 12 4 12 385 3 6 3 351 1 8
2342 1.2516334879787416 -0.10495991828115389 3.3855687323687671 255 255 255 2.3230893486257691 69 199 67 157 57 150 64 331 53 379 51 190 47 273 56 287
4699 1.4780762046214746 -0.050843441762510218 3.0598650370620506 13 15 21 1.5198676407790122 34 47 42 58 61 82 23 49 68 118 3 97 12 105 1 92
3113 1.3378120952834343 0.20424648375788998 3.425828441976245 82 82 82 0.7459717271165619 10 486 11 344 14 424
1463 2.2834121247776684 -0.24409668510413707 2.3389593910213722 29 38 49 0.92520340139334833 91 233 19 179 17 192 15 352 9 253 27 360 6 320 11 279 13 185
2572 1.6107805510186446 0.63284816108219677 2.7480681003997036 126 125 125 0.41348499828148544 67 329 65 475 56 370
1490 2.0944091473584123 -0.42748238749042683 3.3690518193332935 30 30 30 1.6620059165547241 30 254 29 234 27 258 26 249 28 304 24 236 22 237 25 218 91 170 27 351 28 299 24 271 20 212 73 172 19 171 76 185 18 160 71 180 74 227 17 183 77 130 79 205 69 233 66 239 67 274 16 184 15 220 65 278 58 455 10 157 8 252 11 222 4 222 4 431 7 229 5 481 7 469 2 168 89 218 13 230 78 276 77 260
2599 2.7525080513476934 -0.75291402316777034 3.34484018672106 55 63 65 0.67919509295268909 65 64 56 117 11 99
2031 2.565615576102056 0.037527211363229555 2.5640682620832642 255 255 255 1.8125256486990704 77 9 91 8 80 8 15 14 17 16 73 14 19 12 81 10
4388 2.6240325173959511 -0.37601815884068512 2.3777242765444342 18 25 36 1.3630735278323307 78 297 61 111 42 109 34 54 3 33 23 61 68 185
3140 2.0076186711606567 -0.30702962447655874 3.4664514286251342 13 14 12 1.4558838169773058 7 233 5 155 2 97 78 147 7 157 6 154 14 282 12 90 23 94 34 49
410 3.2700044761636433 -0.87443487982051016 3.2576041458452138 76 72 70 0.13332233978833716 40 278 43 358 46 254 48 364 44 370 41 358
